ncols         133
nrows         64
xllcorner     278826.60355005
yllcorner     4343615.4021448
cellsize      400
NODATA_value  -9999
1588.616 1584.164 1579.538 1574.603 1569.21 1563.276 1556.873 1550.23 1543.614 1537.25 1531.209 1525.271 1518.918 1511.384 1501.837 1490.453 1476.24 1462.214 1451.149 1443.185 1436.204 1430.369 1425.673 1421.963 1419.049 1416.754 1414.928 1413.448 1412.213 1411.154 1410.23 1409.423 1408.73 1408.161 1407.729 1407.433 1407.268 1407.235 1407.336 1407.552 1407.84 1408.146 1408.416 1408.623 1408.763 1408.844 1408.863 1408.803 1408.635 1408.298 1407.711 1406.788 1405.489 1403.839 1401.932 1399.836 1396.589 1393.244 1389.811 1386.341 1382.959 1379.816 1377.089 1375.078 1374.948 1373.719 1372.586 1371.753 1370.845 1369.867 1368.902 1368.011 1367.226 1366.549 1365.967 1365.463 1365.025 1364.644 1364.313 1364.025 1363.781 1363.58 1363.426 1363.317 1363.255 1363.235 1363.247 1363.276 1363.3 1363.303 1363.268 1363.182 1363.039 1362.837 1362.583 1362.275 1361.911 1361.482 1360.976 1360.387 1359.717 1358.973 1358.163 1357.289 1356.351 1355.346 1354.271 1353.135 1351.968 1350.861 1349.999 1349.067 1348.035 1346.909 1345.72 1344.505 1343.289 1342.075 1340.85 1339.603 1338.329 1337.033 1335.723 1334.402 1333.068 1331.711 1330.33 1328.936 1327.555 1326.226 1325.007 1324.307 1323.188 
1587.723 1583.211 1578.547 1573.597 1568.228 1562.361 1556.041 1549.459 1542.851 1536.38 1530.12 1523.856 1517.059 1508.949 1498.618 1484.606 1469.052 1454.7 1444.91 1437.647 1431.628 1426.598 1422.49 1419.212 1416.635 1414.621 1413.033 1411.751 1410.678 1409.741 1408.907 1408.167 1407.529 1407.01 1406.626 1406.38 1406.263 1406.267 1406.391 1406.615 1406.896 1407.178 1407.412 1407.581 1407.697 1407.779 1407.822 1407.797 1407.659 1407.344 1406.747 1405.731 1404.245 1402.316 1399.991 1397.237 1393.766 1390.185 1386.694 1383.316 1380.137 1377.305 1375 1373.427 1372.871 1371.978 1371.026 1370.165 1369.304 1368.431 1367.587 1366.811 1366.132 1365.553 1365.066 1364.656 1364.31 1364.015 1363.764 1363.547 1363.36 1363.201 1363.066 1362.957 1362.875 1362.818 1362.784 1362.761 1362.739 1362.702 1362.637 1362.526 1362.359 1362.132 1361.85 1361.515 1361.121 1360.66 1360.12 1359.494 1358.786 1358.009 1357.176 1356.297 1355.373 1354.402 1353.378 1352.296 1351.157 1350.006 1349.263 1348.402 1347.386 1346.248 1345.032 1343.779 1342.514 1341.244 1339.964 1338.668 1337.355 1336.033 1334.711 1333.396 1332.086 1330.778 1329.475 1328.195 1326.985 1325.91 1325 1323.999 1322.74 
1586.306 1581.869 1577.254 1572.344 1567.027 1561.24 1554.997 1548.441 1541.77 1535.106 1528.487 1521.739 1514.353 1505.575 1494.436 1478.601 1462.451 1449.355 1439.774 1432.734 1427.215 1422.754 1419.157 1416.309 1414.096 1412.394 1411.072 1410.01 1409.11 1408.303 1407.561 1406.889 1406.307 1405.843 1405.515 1405.324 1405.254 1405.29 1405.425 1405.638 1405.889 1406.123 1406.295 1406.398 1406.465 1406.535 1406.594 1406.584 1406.444 1406.105 1405.465 1404.253 1402.41 1399.981 1397.022 1393.716 1390.129 1386.627 1383.388 1380.301 1377.45 1375.008 1373.113 1371.785 1371 1370.215 1369.4 1368.605 1367.817 1367.043 1366.308 1365.642 1365.065 1364.585 1364.195 1363.881 1363.626 1363.418 1363.247 1363.103 1362.978 1362.869 1362.769 1362.676 1362.592 1362.517 1362.449 1362.382 1362.311 1362.228 1362.121 1361.975 1361.774 1361.514 1361.198 1360.828 1360.402 1359.91 1359.34 1358.685 1357.95 1357.151 1356.309 1355.44 1354.551 1353.645 1352.724 1351.794 1350.877 1349.998 1349.075 1348.076 1346.969 1345.766 1344.497 1343.194 1341.88 1340.561 1339.234 1337.896 1336.548 1335.199 1333.861 1332.545 1331.255 1329.99 1328.756 1327.572 1326.487 1325.594 1324.994 1323.76 1322.317 
1584.47 1580.2 1575.717 1570.906 1565.676 1559.977 1553.798 1547.231 1540.424 1533.479 1526.368 1518.923 1510.635 1500.689 1487.73 1471.646 1455.588 1443.99 1435.155 1428.436 1423.229 1419.133 1415.913 1413.423 1411.543 1410.148 1409.099 1408.264 1407.543 1406.868 1406.215 1405.602 1405.072 1404.668 1404.405 1404.273 1404.248 1404.309 1404.441 1404.626 1404.827 1404.992 1405.077 1405.08 1405.06 1405.106 1405.173 1405.161 1404.968 1404.531 1403.865 1402.344 1399.98 1396.891 1393.383 1389.696 1386.055 1382.799 1380.114 1377.463 1375.016 1373.012 1371.419 1370.227 1369.369 1368.611 1367.873 1367.149 1366.441 1365.757 1365.12 1364.551 1364.068 1363.679 1363.379 1363.153 1362.985 1362.859 1362.763 1362.687 1362.623 1362.564 1362.505 1362.438 1362.365 1362.288 1362.205 1362.109 1361.997 1361.868 1361.716 1361.528 1361.288 1360.99 1360.633 1360.223 1359.76 1359.234 1358.635 1357.955 1357.2 1356.389 1355.547 1354.698 1353.855 1353.025 1352.214 1351.435 1350.708 1350 1349.023 1347.895 1346.675 1345.389 1344.058 1342.704 1341.344 1339.984 1338.62 1337.249 1335.872 1334.5 1333.148 1331.831 1330.558 1329.332 1328.157 1327.04 1325.987 1325.004 1324.382 1323.251 1321.791 
1582.384 1578.321 1574.018 1569.359 1564.241 1558.631 1552.5 1545.892 1538.895 1531.608 1523.951 1515.714 1506.524 1496.04 1481.627 1465.806 1451.254 1440.062 1431.431 1424.826 1419.761 1415.867 1412.889 1410.661 1409.057 1407.946 1407.162 1406.553 1406.008 1405.46 1404.889 1404.321 1403.827 1403.49 1403.301 1403.23 1403.245 1403.319 1403.436 1403.58 1403.72 1403.807 1403.79 1403.655 1403.486 1403.501 1403.58 1403.558 1403.254 1402.551 1401.983 1399.988 1396.939 1393.289 1389.383 1385.478 1381.847 1378.913 1377.183 1375.023 1373.036 1371.329 1369.931 1368.831 1367.964 1367.217 1366.522 1365.854 1365.212 1364.606 1364.052 1363.568 1363.169 1362.862 1362.641 1362.494 1362.403 1362.352 1362.325 1362.31 1362.3 1362.288 1362.267 1362.23 1362.177 1362.108 1362.023 1361.914 1361.775 1361.608 1361.412 1361.181 1360.9 1360.561 1360.161 1359.707 1359.201 1358.637 1358.007 1357.303 1356.531 1355.71 1354.872 1354.043 1353.244 1352.483 1351.762 1351.081 1350.474 1349.997 1348.928 1347.694 1346.385 1345.031 1343.647 1342.251 1340.856 1339.465 1338.074 1336.679 1335.281 1333.893 1332.534 1331.221 1329.967 1328.781 1327.673 1326.661 1325.776 1325 1324.068 1322.796 1321.254 
1580.199 1576.342 1572.243 1567.767 1562.785 1557.259 1551.152 1544.478 1537.283 1529.643 1521.495 1512.448 1501.925 1490.12 1475.478 1460.287 1447.675 1436.776 1428.253 1421.717 1416.735 1412.959 1410.13 1408.074 1406.677 1405.825 1405.295 1404.9 1404.524 1404.101 1403.607 1403.063 1402.566 1402.308 1402.203 1402.189 1402.229 1402.301 1402.39 1402.487 1402.568 1402.591 1402.491 1402.203 1401.766 1401.763 1401.853 1401.847 1401.455 1400.105 1399.812 1397.063 1393.402 1389.371 1385.306 1381.417 1377.915 1375.214 1374.877 1373.127 1371.383 1369.876 1368.626 1367.607 1366.766 1366.035 1365.367 1364.74 1364.15 1363.603 1363.117 1362.705 1362.379 1362.144 1361.993 1361.915 1361.893 1361.909 1361.944 1361.986 1362.024 1362.054 1362.068 1362.06 1362.027 1361.971 1361.891 1361.78 1361.627 1361.432 1361.199 1360.928 1360.606 1360.225 1359.782 1359.282 1358.729 1358.123 1357.457 1356.725 1355.934 1355.104 1354.265 1353.451 1352.688 1351.986 1351.335 1350.69 1350.002 1349.503 1348.548 1347.338 1346.01 1344.625 1343.212 1341.79 1340.371 1338.96 1337.552 1336.143 1334.734 1333.338 1331.978 1330.676 1329.448 1328.301 1327.244 1326.3 1325.53 1324.995 1323.815 1322.366 1320.723 
1578.006 1574.346 1570.453 1566.174 1561.348 1555.9 1549.794 1543.021 1535.639 1527.726 1519.351 1510.199 1499.55 1486.078 1470.393 1454.652 1443.035 1433.234 1425.232 1418.915 1414.051 1410.376 1407.642 1405.673 1404.401 1403.798 1403.507 1403.305 1403.083 1402.788 1402.387 1401.861 1401.281 1401.13 1401.109 1401.129 1401.168 1401.216 1401.265 1401.313 1401.348 1401.345 1401.246 1400.905 1400.021 1399.997 1400.002 1400.012 1399.907 1398.087 1396.312 1393.227 1389.374 1385.299 1381.418 1377.921 1375.006 1373.006 1372.271 1371.091 1369.777 1368.544 1367.465 1366.544 1365.751 1365.047 1364.402 1363.803 1363.249 1362.748 1362.312 1361.958 1361.692 1361.519 1361.43 1361.414 1361.455 1361.532 1361.627 1361.723 1361.808 1361.877 1361.923 1361.942 1361.929 1361.886 1361.813 1361.702 1361.542 1361.329 1361.067 1360.759 1360.4 1359.979 1359.492 1358.945 1358.344 1357.691 1356.983 1356.219 1355.405 1354.559 1353.713 1352.903 1352.161 1351.512 1350.961 1350.47 1349.997 1349.167 1348.107 1346.877 1345.541 1344.146 1342.721 1341.287 1339.858 1338.437 1337.021 1335.605 1334.192 1332.796 1331.444 1330.162 1328.967 1327.863 1326.846 1325.898 1325.003 1324.416 1323.316 1321.857 1320.177 
1575.846 1572.371 1568.676 1564.591 1559.939 1554.579 1548.46 1541.551 1533.937 1525.753 1517.199 1508.245 1498.164 1483.816 1467.588 1451.881 1440.08 1430.499 1422.682 1416.464 1411.679 1408.096 1405.43 1403.466 1402.189 1401.856 1401.774 1401.716 1401.623 1401.472 1401.227 1400.802 1400.009 1399.998 1399.999 1400 1400 1400 1400 1400 1400 1400.001 1400.004 1399.977 1398.949 1398.353 1397.951 1397.545 1396.798 1394.926 1392.471 1389.149 1385.257 1381.325 1377.896 1375.01 1372.76 1371.207 1370.314 1369.387 1368.384 1367.392 1366.472 1365.646 1364.906 1364.233 1363.609 1363.028 1362.497 1362.026 1361.626 1361.312 1361.094 1360.972 1360.938 1360.978 1361.077 1361.213 1361.366 1361.516 1361.652 1361.763 1361.844 1361.89 1361.899 1361.868 1361.8 1361.688 1361.522 1361.295 1361.008 1360.669 1360.274 1359.814 1359.286 1358.691 1358.039 1357.335 1356.582 1355.78 1354.938 1354.071 1353.21 1352.387 1351.639 1351.003 1350.496 1350 1349.451 1348.605 1347.535 1346.307 1344.977 1343.585 1342.16 1340.726 1339.295 1337.873 1336.456 1335.041 1333.629 1332.241 1330.904 1329.651 1328.5 1327.463 1326.539 1325.729 1325 1324.11 1322.877 1321.36 1319.647 
1573.719 1570.415 1566.904 1563.007 1558.536 1553.295 1547.181 1540.137 1532.225 1523.645 1514.656 1505.561 1496.408 1482.268 1466.275 1450.849 1438.601 1428.7 1420.685 1414.357 1409.571 1406.087 1403.516 1401.521 1400.036 1399.985 1399.994 1399.997 1399.999 1400 1400.002 1399.986 1399.248 1398.924 1398.772 1398.682 1398.614 1398.557 1398.513 1398.481 1398.458 1398.428 1398.346 1398.075 1397.223 1396.379 1395.594 1394.72 1393.469 1391.451 1388.755 1385.364 1381.523 1377.775 1375.002 1372.83 1371.132 1369.882 1368.994 1368.178 1367.343 1366.504 1365.696 1364.938 1364.235 1363.581 1362.968 1362.396 1361.876 1361.42 1361.042 1360.755 1360.569 1360.487 1360.499 1360.591 1360.744 1360.938 1361.149 1361.357 1361.546 1361.706 1361.828 1361.907 1361.94 1361.926 1361.863 1361.749 1361.574 1361.331 1361.021 1360.652 1360.223 1359.727 1359.156 1358.514 1357.808 1357.049 1356.245 1355.402 1354.527 1353.639 1352.761 1351.92 1351.141 1350.472 1350 1349.465 1348.815 1347.942 1346.87 1345.65 1344.329 1342.945 1341.526 1340.096 1338.67 1337.252 1335.841 1334.431 1333.028 1331.652 1330.337 1329.117 1328.016 1327.045 1326.204 1325.507 1324.995 1323.861 1322.469 1320.883 1319.144 
1571.595 1568.449 1565.108 1561.388 1557.102 1552.023 1545.981 1538.891 1530.764 1521.777 1512.132 1502.109 1493.53 1480.884 1465.707 1450.576 1437.942 1427.543 1419.092 1412.461 1407.577 1404.228 1401.847 1399.976 1398.456 1397.961 1397.853 1397.89 1397.994 1398.128 1398.25 1398.259 1397.875 1397.563 1397.351 1397.196 1397.067 1396.956 1396.865 1396.796 1396.734 1396.636 1396.426 1395.979 1395.155 1394.17 1393.11 1391.898 1390.35 1388.259 1385.588 1382.362 1378.745 1375.154 1373.148 1371.543 1370.209 1369.137 1368.272 1367.486 1366.71 1365.935 1365.173 1364.44 1363.744 1363.086 1362.466 1361.889 1361.367 1360.913 1360.542 1360.269 1360.104 1360.051 1360.101 1360.24 1360.445 1360.696 1360.966 1361.234 1361.481 1361.695 1361.865 1361.985 1362.05 1362.056 1362.003 1361.887 1361.702 1361.441 1361.106 1360.706 1360.243 1359.709 1359.097 1358.405 1357.642 1356.824 1355.964 1355.074 1354.167 1353.261 1352.378 1351.538 1350.744 1350.002 1349.532 1348.942 1348.191 1347.254 1346.155 1344.927 1343.608 1342.228 1340.815 1339.392 1337.974 1336.567 1335.165 1333.766 1332.377 1331.02 1329.731 1328.548 1327.497 1326.587 1325.787 1325.003 1324.431 1323.363 1321.978 1320.392 1318.66 
1569.429 1566.426 1563.245 1559.695 1555.593 1550.714 1544.845 1537.881 1529.845 1520.94 1511.485 1501.839 1493.704 1481.18 1465.99 1450.697 1437.672 1426.734 1417.713 1410.592 1405.455 1402.237 1399.956 1397.944 1396.469 1395.755 1395.525 1395.558 1395.727 1395.949 1396.15 1396.232 1396.095 1395.906 1395.729 1395.566 1395.408 1395.258 1395.126 1395.017 1394.908 1394.746 1394.442 1393.895 1393.044 1391.968 1390.735 1389.333 1387.665 1385.63 1383.202 1380.448 1377.582 1374.973 1372.883 1371.292 1370.021 1368.976 1368.083 1367.265 1366.473 1365.689 1364.914 1364.158 1363.432 1362.741 1362.092 1361.491 1360.951 1360.486 1360.11 1359.841 1359.687 1359.655 1359.738 1359.919 1360.176 1360.484 1360.814 1361.143 1361.45 1361.723 1361.948 1362.115 1362.216 1362.248 1362.208 1362.095 1361.901 1361.623 1361.262 1360.829 1360.328 1359.756 1359.1 1358.357 1357.536 1356.653 1355.731 1354.788 1353.846 1352.926 1352.058 1351.272 1350.591 1350 1349.32 1348.526 1347.609 1346.565 1345.403 1344.144 1342.811 1341.429 1340.02 1338.606 1337.201 1335.809 1334.424 1333.042 1331.673 1330.342 1329.086 1327.944 1326.948 1326.132 1325.526 1324.996 1324.059 1322.869 1321.469 1319.901 1318.193 
1567.166 1564.296 1561.27 1557.884 1553.965 1549.299 1543.679 1536.981 1529.284 1520.895 1512.356 1504.212 1496.422 1482.586 1466.646 1450.933 1437.556 1426.131 1416.49 1408.692 1403.017 1399.892 1397.421 1395.492 1394.13 1393.379 1393.098 1393.125 1393.331 1393.617 1393.891 1394.072 1394.111 1394.062 1393.969 1393.844 1393.694 1393.531 1393.373 1393.23 1393.083 1392.877 1392.527 1391.942 1391.077 1389.966 1388.655 1387.173 1385.502 1383.607 1381.49 1379.231 1377 1374.993 1373.122 1371.592 1370.335 1369.263 1368.309 1367.422 1366.566 1365.724 1364.892 1364.077 1363.288 1362.536 1361.831 1361.186 1360.611 1360.12 1359.729 1359.454 1359.307 1359.294 1359.406 1359.63 1359.938 1360.303 1360.696 1361.087 1361.457 1361.791 1362.072 1362.288 1362.43 1362.49 1362.466 1362.358 1362.161 1361.868 1361.483 1361.016 1360.475 1359.858 1359.156 1358.361 1357.478 1356.527 1355.536 1354.533 1353.548 1352.609 1351.748 1351.002 1350.412 1349.998 1349.111 1348.101 1347.012 1345.844 1344.599 1343.289 1341.927 1340.533 1339.126 1337.725 1336.34 1334.972 1333.613 1332.258 1330.92 1329.625 1328.412 1327.314 1326.353 1325.552 1325 1324.414 1323.492 1322.318 1320.951 1319.424 1317.746 
1564.752 1562.011 1559.139 1555.922 1552.18 1547.717 1542.348 1535.939 1528.563 1520.514 1512.279 1504.288 1496.298 1482.388 1466.551 1450.944 1437.49 1425.761 1415.607 1407.079 1400.461 1397.148 1394.794 1393.006 1391.745 1391.004 1390.7 1390.716 1390.938 1391.264 1391.604 1391.883 1392.057 1392.138 1392.146 1392.093 1391.986 1391.84 1391.679 1391.518 1391.349 1391.124 1390.766 1390.194 1389.357 1388.265 1386.959 1385.486 1383.87 1382.129 1380.289 1378.413 1376.616 1374.998 1373.474 1372.119 1370.914 1369.82 1368.802 1367.831 1366.889 1365.963 1365.05 1364.153 1363.281 1362.448 1361.667 1360.956 1360.328 1359.798 1359.381 1359.094 1358.953 1358.96 1359.107 1359.375 1359.737 1360.162 1360.617 1361.073 1361.508 1361.902 1362.24 1362.505 1362.685 1362.773 1362.766 1362.664 1362.465 1362.163 1361.757 1361.256 1360.673 1360.008 1359.255 1358.403 1357.456 1356.435 1355.371 1354.301 1353.263 1352.293 1351.421 1350.664 1350.002 1349.518 1348.637 1347.536 1346.325 1345.047 1343.715 1342.341 1340.938 1339.525 1338.119 1336.736 1335.38 1334.049 1332.73 1331.419 1330.127 1328.885 1327.734 1326.71 1325.818 1325.003 1324.48 1323.826 1322.916 1321.783 1320.467 1318.983 1317.328 
1562.151 1559.544 1556.822 1553.782 1550.218 1545.936 1540.775 1534.607 1527.441 1519.453 1510.842 1501.694 1492.83 1480.203 1465.52 1450.705 1437.517 1425.744 1415.403 1406.692 1399.984 1395.76 1392.944 1390.976 1389.641 1388.839 1388.479 1388.456 1388.662 1389.002 1389.388 1389.745 1390.026 1390.22 1390.333 1390.369 1390.332 1390.234 1390.097 1389.941 1389.768 1389.545 1389.209 1388.686 1387.919 1386.9 1385.658 1384.251 1382.728 1381.127 1379.492 1377.874 1376.345 1374.998 1373.855 1372.726 1371.599 1370.495 1369.418 1368.365 1367.331 1366.314 1365.31 1364.322 1363.36 1362.437 1361.57 1360.778 1360.083 1359.501 1359.05 1358.75 1358.615 1358.647 1358.836 1359.156 1359.576 1360.063 1360.584 1361.108 1361.607 1362.062 1362.454 1362.764 1362.979 1363.092 1363.1 1363.003 1362.802 1362.492 1362.07 1361.539 1360.912 1360.195 1359.384 1358.47 1357.456 1356.363 1355.223 1354.082 1352.986 1351.981 1351.114 1350.439 1349.997 1349.159 1348.09 1346.858 1345.531 1344.146 1342.726 1341.282 1339.831 1338.393 1336.988 1335.628 1334.315 1333.037 1331.779 1330.532 1329.309 1328.137 1327.067 1326.167 1325.507 1324.997 1324.218 1323.389 1322.436 1321.329 1320.057 1318.606 1316.956 
1559.349 1556.891 1554.313 1551.451 1548.067 1543.955 1538.96 1532.982 1526.006 1518.171 1509.625 1500.378 1490.313 1477.994 1464.268 1450.432 1437.671 1425.994 1415.615 1406.838 1399.979 1395.146 1391.813 1389.514 1387.969 1387.02 1386.548 1386.442 1386.597 1386.918 1387.32 1387.728 1388.086 1388.372 1388.58 1388.711 1388.763 1388.739 1388.655 1388.531 1388.376 1388.174 1387.877 1387.422 1386.753 1385.844 1384.711 1383.406 1381.99 1380.519 1379.037 1377.592 1376.224 1375.005 1374.317 1373.36 1372.276 1371.155 1370.029 1368.906 1367.789 1366.684 1365.591 1364.515 1363.464 1362.452 1361.496 1360.619 1359.849 1359.209 1358.723 1358.41 1358.286 1358.353 1358.593 1358.972 1359.456 1360.01 1360.599 1361.191 1361.755 1362.268 1362.711 1363.063 1363.308 1363.441 1363.46 1363.368 1363.164 1362.846 1362.409 1361.851 1361.182 1360.408 1359.533 1358.55 1357.463 1356.294 1355.079 1353.866 1352.708 1351.656 1350.752 1350.003 1349.48 1348.578 1347.401 1346.055 1344.614 1343.124 1341.612 1340.095 1338.592 1337.129 1335.727 1334.399 1333.144 1331.941 1330.769 1329.614 1328.485 1327.401 1326.4 1325.553 1325 1324.503 1323.794 1322.969 1322.036 1320.972 1319.744 1318.314 1316.645 
1556.353 1554.062 1551.62 1548.919 1545.712 1541.771 1536.919 1531.072 1524.231 1516.552 1508.284 1499.463 1488.415 1475.939 1462.909 1450.146 1437.848 1426.282 1415.878 1407.045 1400.033 1394.889 1391.167 1388.529 1386.726 1385.58 1384.956 1384.734 1384.805 1385.073 1385.457 1385.882 1386.288 1386.639 1386.926 1387.146 1387.294 1387.363 1387.358 1387.292 1387.179 1387.013 1386.765 1386.386 1385.823 1385.042 1384.042 1382.861 1381.56 1380.207 1378.858 1377.575 1376.433 1375.537 1374.995 1373.954 1372.836 1371.692 1370.529 1369.354 1368.173 1366.995 1365.825 1364.67 1363.538 1362.442 1361.401 1360.442 1359.598 1358.902 1358.384 1358.066 1357.965 1358.076 1358.375 1358.822 1359.375 1359.999 1360.658 1361.318 1361.946 1362.512 1363 1363.389 1363.661 1363.81 1363.838 1363.75 1363.545 1363.22 1362.767 1362.182 1361.47 1360.638 1359.691 1358.63 1357.464 1356.217 1354.927 1353.649 1352.438 1351.357 1350.502 1349.996 1349.085 1347.949 1346.614 1345.135 1343.572 1341.97 1340.362 1338.768 1337.215 1335.73 1334.339 1333.057 1331.877 1330.774 1329.715 1328.685 1327.69 1326.733 1325.829 1325.003 1324.537 1324.027 1323.367 1322.595 1321.723 1320.723 1319.543 1318.123 1316.413 
1553.176 1551.073 1548.757 1546.18 1543.12 1539.344 1534.649 1528.896 1522.055 1514.25 1505.865 1497.559 1485.959 1473.399 1461.026 1449.628 1437.822 1426.32 1415.865 1407.042 1400.082 1394.792 1390.786 1387.86 1385.817 1384.478 1383.696 1383.344 1383.312 1383.503 1383.838 1384.247 1384.667 1385.056 1385.398 1385.692 1385.932 1386.103 1386.194 1386.208 1386.155 1386.041 1385.848 1385.543 1385.082 1384.426 1383.563 1382.512 1381.328 1380.075 1378.824 1377.642 1376.596 1375.732 1375.001 1374.14 1373.129 1372.02 1370.849 1369.642 1368.416 1367.185 1365.956 1364.735 1363.533 1362.363 1361.245 1360.211 1359.303 1358.561 1358.022 1357.713 1357.648 1357.816 1358.184 1358.703 1359.327 1360.022 1360.751 1361.479 1362.165 1362.781 1363.309 1363.729 1364.023 1364.185 1364.221 1364.137 1363.935 1363.606 1363.139 1362.526 1361.769 1360.874 1359.849 1358.701 1357.447 1356.117 1354.757 1353.421 1352.162 1351.016 1350.004 1349.419 1348.459 1347.196 1345.72 1344.102 1342.405 1340.681 1338.968 1337.297 1335.698 1334.201 1332.835 1331.614 1330.53 1329.554 1328.637 1327.76 1326.943 1326.17 1325.505 1324.998 1324.331 1323.691 1323.021 1322.301 1321.508 1320.588 1319.462 1318.046 1316.28 
1549.823 1547.918 1545.709 1543.205 1540.239 1536.593 1532.089 1526.515 1519.686 1511.505 1502.087 1493.427 1482.317 1470.024 1458.162 1448.55 1437.336 1425.832 1415.235 1406.504 1400.031 1394.643 1390.422 1387.302 1385.102 1383.628 1382.722 1382.255 1382.118 1382.219 1382.481 1382.843 1383.246 1383.644 1384.017 1384.365 1384.681 1384.949 1385.144 1385.252 1385.277 1385.224 1385.09 1384.853 1384.479 1383.932 1383.192 1382.264 1381.185 1380.016 1378.827 1377.689 1376.666 1375.786 1375 1374.192 1373.233 1372.144 1370.967 1369.737 1368.481 1367.214 1365.944 1364.676 1363.419 1362.186 1361.001 1359.905 1358.946 1358.175 1357.633 1357.35 1357.337 1357.575 1358.018 1358.61 1359.305 1360.069 1360.867 1361.658 1362.399 1363.059 1363.62 1364.066 1364.38 1364.555 1364.598 1364.521 1364.324 1363.995 1363.517 1362.876 1362.072 1361.108 1359.995 1358.751 1357.4 1355.982 1354.552 1353.178 1351.932 1350.876 1350 1349.063 1347.848 1346.385 1344.736 1342.961 1341.117 1339.258 1337.433 1335.684 1334.049 1332.559 1331.236 1330.097 1329.129 1328.312 1327.557 1326.836 1326.219 1325.575 1325 1324.542 1323.958 1323.341 1322.716 1322.079 1321.389 1320.566 1319.501 1318.09 1316.261 
1546.281 1544.556 1542.408 1539.895 1536.935 1533.357 1529.053 1523.86 1517.508 1509.795 1500.585 1490.744 1479.234 1466.849 1454.801 1446.948 1436.435 1424.708 1413.669 1404.837 1399.354 1393.968 1389.76 1386.659 1384.457 1382.951 1381.983 1381.433 1381.205 1381.212 1381.387 1381.679 1382.037 1382.418 1382.799 1383.177 1383.55 1383.901 1384.194 1384.401 1384.511 1384.526 1384.45 1384.272 1383.968 1383.506 1382.864 1382.036 1381.046 1379.942 1378.789 1377.66 1376.625 1375.744 1375.001 1374.174 1373.185 1372.07 1370.871 1369.622 1368.348 1367.062 1365.769 1364.472 1363.176 1361.896 1360.66 1359.514 1358.522 1357.742 1357.219 1356.981 1357.034 1357.351 1357.872 1358.535 1359.297 1360.127 1360.99 1361.839 1362.63 1363.329 1363.921 1364.39 1364.722 1364.911 1364.965 1364.896 1364.706 1364.379 1363.891 1363.224 1362.368 1361.329 1360.12 1358.766 1357.306 1355.791 1354.284 1352.862 1351.611 1350.635 1349.992 1348.704 1347.187 1345.493 1343.656 1341.714 1339.713 1337.711 1335.768 1333.945 1332.29 1330.835 1329.583 1328.552 1327.709 1327.097 1326.525 1325.918 1325.561 1325.001 1324.5 1324.032 1323.509 1322.963 1322.431 1321.911 1321.35 1320.644 1319.654 1318.255 1316.364 
1542.508 1540.895 1538.708 1536.045 1532.936 1529.297 1525.096 1520.316 1514.72 1508.083 1499.646 1488.74 1476.93 1465.531 1455.663 1447.861 1435.991 1423.159 1411.242 1401.58 1396.489 1392.174 1388.616 1385.868 1383.846 1382.416 1381.45 1380.853 1380.546 1380.462 1380.543 1380.747 1381.038 1381.381 1381.751 1382.141 1382.552 1382.965 1383.341 1383.639 1383.832 1383.915 1383.891 1383.761 1383.509 1383.107 1382.532 1381.775 1380.848 1379.789 1378.656 1377.514 1376.44 1375.545 1374.997 1374.031 1372.942 1371.771 1370.543 1369.281 1368.004 1366.717 1365.419 1364.112 1362.797 1361.488 1360.219 1359.046 1358.043 1357.276 1356.792 1356.616 1356.747 1357.144 1357.739 1358.467 1359.29 1360.18 1361.102 1362.006 1362.844 1363.581 1364.204 1364.697 1365.048 1365.255 1365.322 1365.263 1365.081 1364.756 1364.257 1363.557 1362.644 1361.521 1360.204 1358.731 1357.15 1355.529 1353.939 1352.452 1351.128 1350.008 1349.254 1347.956 1346.313 1344.457 1342.455 1340.353 1338.198 1336.054 1333.995 1332.105 1330.459 1329.089 1327.939 1327.064 1326.313 1325.979 1325.633 1325.005 1324.997 1324.476 1323.958 1323.482 1323.011 1322.56 1322.153 1321.782 1321.375 1320.803 1319.904 1318.527 1316.582 
1538.44 1536.788 1534.389 1531.349 1527.829 1523.893 1519.538 1514.916 1509.795 1504.277 1496.57 1484.989 1473.22 1462.836 1454.388 1446.585 1434.065 1420.843 1409.084 1400.285 1394.744 1390.673 1387.546 1385.159 1383.372 1382.063 1381.131 1380.501 1380.121 1379.942 1379.921 1380.026 1380.235 1380.524 1380.87 1381.262 1381.695 1382.151 1382.589 1382.959 1383.223 1383.366 1383.387 1383.291 1383.068 1382.7 1382.161 1381.442 1380.55 1379.518 1378.396 1377.242 1376.099 1375.007 1374.41 1373.497 1372.395 1371.2 1369.959 1368.702 1367.44 1366.174 1364.895 1363.599 1362.285 1360.968 1359.688 1358.514 1357.526 1356.795 1356.37 1356.27 1356.482 1356.955 1357.613 1358.393 1359.265 1360.207 1361.183 1362.141 1363.026 1363.805 1364.465 1364.989 1365.365 1365.593 1365.675 1365.628 1365.451 1365.121 1364.604 1363.863 1362.881 1361.661 1360.226 1358.621 1356.911 1355.181 1353.522 1352.018 1350.767 1349.989 1348.686 1347.1 1345.279 1343.273 1341.126 1338.879 1336.584 1334.31 1332.147 1330.206 1328.607 1327.417 1326.391 1325.798 1325.009 1324.999 1324.993 1324.39 1324.088 1323.664 1323.231 1322.825 1322.448 1322.123 1321.87 1321.672 1321.438 1321.015 1320.219 1318.88 1316.894 
1533.966 1532.037 1529.164 1525.43 1521.125 1516.557 1511.649 1506.786 1501.27 1496.28 1487.967 1477.406 1466.69 1457.527 1450.067 1441.726 1430.004 1417.272 1406.204 1399.101 1393.455 1389.549 1386.774 1384.72 1383.158 1381.962 1381.052 1380.378 1379.91 1379.623 1379.489 1379.486 1379.603 1379.828 1380.144 1380.532 1380.979 1381.463 1381.941 1382.36 1382.675 1382.861 1382.914 1382.835 1382.622 1382.259 1381.726 1381.011 1380.121 1379.089 1377.976 1376.86 1375.841 1374.992 1373.9 1372.761 1371.573 1370.349 1369.111 1367.878 1366.656 1365.437 1364.203 1362.943 1361.654 1360.352 1359.088 1357.938 1356.993 1356.324 1355.975 1355.956 1356.245 1356.781 1357.483 1358.297 1359.203 1360.186 1361.212 1362.224 1363.164 1363.997 1364.707 1365.273 1365.683 1365.933 1366.032 1365.991 1365.811 1365.466 1364.915 1364.116 1363.048 1361.717 1360.152 1358.407 1356.558 1354.714 1352.994 1351.458 1350.016 1349.114 1347.727 1346.005 1344.056 1341.932 1339.665 1337.298 1334.889 1332.516 1330.277 1328.303 1326.786 1325.982 1325.015 1324.987 1324.244 1323.906 1323.689 1323.263 1322.939 1322.627 1322.33 1322.056 1321.819 1321.65 1321.573 1321.561 1321.507 1321.238 1320.553 1319.262 1317.253 
1528.88 1526.366 1522.693 1517.871 1512.311 1506.775 1500.83 1495.608 1489.077 1483.243 1476.084 1467.515 1458.601 1451.431 1445.817 1437.617 1426.085 1413.32 1402.075 1395.982 1391.662 1388.604 1386.387 1384.689 1383.318 1382.181 1381.243 1380.483 1379.894 1379.473 1379.208 1379.088 1379.109 1379.267 1379.549 1379.933 1380.392 1380.894 1381.393 1381.837 1382.177 1382.385 1382.45 1382.372 1382.148 1381.764 1381.203 1380.454 1379.525 1378.45 1377.286 1376.111 1375.001 1373.999 1372.844 1371.639 1370.42 1369.201 1367.995 1366.815 1365.66 1364.516 1363.356 1362.161 1360.924 1359.665 1358.444 1357.346 1356.47 1355.884 1355.624 1355.687 1356.039 1356.614 1357.334 1358.157 1359.077 1360.086 1361.155 1362.226 1363.237 1364.144 1364.925 1365.552 1366.002 1366.276 1366.381 1366.335 1366.137 1365.759 1365.153 1364.273 1363.096 1361.64 1359.941 1358.053 1356.058 1354.09 1352.353 1351.056 1349.978 1348.378 1346.617 1344.707 1342.645 1340.43 1338.072 1335.613 1333.128 1330.709 1328.46 1326.498 1325.031 1324.975 1324.107 1323.653 1323.024 1322.553 1322.208 1321.877 1321.638 1321.466 1321.329 1321.218 1321.145 1321.148 1321.25 1321.417 1321.53 1321.404 1320.824 1319.585 1317.563 
1522.813 1519.371 1514.581 1508.244 1500.827 1494.126 1486.668 1480.102 1473.498 1468.409 1463.489 1457.834 1451.773 1449.026 1444.731 1436.189 1424.028 1411.042 1400.422 1394.429 1390.806 1388.43 1386.684 1385.239 1383.947 1382.768 1381.713 1380.8 1380.045 1379.457 1379.042 1378.795 1378.717 1378.807 1379.056 1379.437 1379.907 1380.421 1380.926 1381.37 1381.709 1381.914 1381.972 1381.877 1381.622 1381.195 1380.575 1379.752 1378.738 1377.568 1376.297 1375 1373.751 1372.571 1371.359 1370.14 1368.938 1367.76 1366.62 1365.525 1364.471 1363.433 1362.378 1361.279 1360.123 1358.934 1357.782 1356.763 1355.978 1355.493 1355.328 1355.466 1355.859 1356.439 1357.142 1357.942 1358.848 1359.865 1360.966 1362.105 1363.21 1364.223 1365.103 1365.808 1366.305 1366.589 1366.678 1366.602 1366.364 1365.933 1365.248 1364.256 1362.945 1361.353 1359.534 1357.527 1355.386 1353.23 1351.292 1349.997 1348.701 1347.005 1345.121 1343.13 1341.02 1338.758 1336.339 1333.815 1331.295 1328.9 1326.759 1324.996 1323.729 1323.271 1322.625 1322.078 1321.51 1321.03 1320.678 1320.437 1320.32 1320.295 1320.315 1320.363 1320.451 1320.616 1320.876 1321.188 1321.429 1321.411 1320.91 1319.703 1317.647 
1515.143 1510.39 1504.308 1496.162 1486.263 1477.335 1470.074 1463.87 1457.657 1454.162 1451.771 1449.733 1448.67 1449.418 1446.487 1437.242 1423.65 1409.832 1399.955 1394.362 1391.299 1389.387 1387.885 1386.477 1385.079 1383.71 1382.428 1381.284 1380.311 1379.529 1378.948 1378.568 1378.392 1378.419 1378.637 1379.011 1379.491 1380.011 1380.509 1380.931 1381.241 1381.416 1381.444 1381.316 1381.017 1380.528 1379.82 1378.884 1377.74 1376.425 1374.999 1373.536 1372.132 1370.811 1369.541 1368.325 1367.164 1366.059 1365.016 1364.039 1363.117 1362.219 1361.302 1360.327 1359.279 1358.185 1357.124 1356.203 1355.529 1355.156 1355.089 1355.287 1355.689 1356.229 1356.865 1357.6 1358.458 1359.452 1360.572 1361.785 1363.018 1364.178 1365.189 1365.985 1366.519 1366.786 1366.817 1366.667 1366.36 1365.858 1365.075 1363.945 1362.472 1360.738 1358.845 1356.797 1354.591 1352.308 1350.056 1348.659 1347.081 1345.228 1343.262 1341.261 1339.174 1336.914 1334.456 1331.881 1329.348 1327.011 1325 1323.391 1322.226 1321.543 1320.94 1320.395 1319.884 1319.461 1319.184 1319.064 1319.085 1319.198 1319.347 1319.517 1319.73 1320.018 1320.386 1320.779 1321.075 1321.1 1320.63 1319.41 1317.258 
1504.966 1498.281 1490.906 1480.711 1469.809 1460.309 1454.692 1450.38 1446.659 1443.614 1440.523 1438.42 1441.176 1447.732 1448.491 1439.222 1423.902 1408.531 1399.916 1395.598 1393.307 1391.666 1390.084 1388.402 1386.648 1384.915 1383.291 1381.845 1380.616 1379.623 1378.874 1378.368 1378.101 1378.071 1378.26 1378.627 1379.108 1379.625 1380.102 1380.48 1380.732 1380.849 1380.826 1380.649 1380.295 1379.737 1378.915 1377.826 1376.505 1374.998 1373.369 1371.74 1370.196 1368.768 1367.457 1366.257 1365.157 1364.146 1363.226 1362.395 1361.637 1360.912 1360.164 1359.343 1358.424 1357.437 1356.474 1355.659 1355.107 1354.858 1354.887 1355.126 1355.495 1355.934 1356.436 1357.054 1357.821 1358.749 1359.855 1361.143 1362.544 1363.9 1365.068 1365.952 1366.493 1366.688 1366.592 1366.301 1365.891 1365.315 1364.443 1363.164 1361.5 1359.614 1357.732 1355.777 1353.669 1351.657 1349.931 1347.62 1345.361 1343.145 1341.045 1339.082 1337.1 1334.901 1332.417 1329.788 1327.255 1325.003 1323.146 1321.682 1320.596 1319.852 1319.256 1318.732 1318.276 1317.939 1317.781 1317.807 1317.969 1318.192 1318.414 1318.636 1318.9 1319.244 1319.646 1320.023 1320.263 1320.228 1319.722 1318.439 1316.109 
1491.235 1481.317 1472.705 1463.845 1454.747 1448.576 1444.318 1438.359 1432.745 1426.971 1420.6 1394 1394 1446.095 1446.962 1440.294 1424.501 1407.288 1401.381 1398.977 1397.274 1395.397 1393.215 1390.845 1388.456 1386.188 1384.135 1382.349 1380.856 1379.663 1378.764 1378.15 1377.811 1377.735 1377.897 1378.25 1378.723 1379.224 1379.664 1379.977 1380.139 1380.165 1380.072 1379.832 1379.413 1378.796 1377.834 1376.545 1374.997 1373.248 1371.428 1369.651 1367.995 1366.496 1365.166 1364 1362.979 1362.083 1361.304 1360.642 1360.075 1359.553 1359.003 1358.358 1357.579 1356.694 1355.811 1355.09 1354.662 1354.543 1354.667 1354.929 1355.217 1355.474 1355.746 1356.191 1356.818 1357.621 1358.648 1359.984 1361.608 1363.207 1364.532 1365.464 1365.95 1365.989 1365.662 1365.131 1364.586 1363.97 1363.068 1361.682 1359.804 1357.722 1355.995 1354.267 1352.131 1350.021 1348.086 1345.661 1343.08 1340.568 1338.347 1336.517 1334.773 1332.727 1330.211 1327.513 1325.007 1322.894 1321.201 1319.896 1318.918 1318.208 1317.64 1317.144 1316.737 1316.49 1316.464 1316.639 1316.922 1317.202 1317.41 1317.571 1317.77 1318.073 1318.419 1318.66 1318.682 1318.426 1317.81 1316.444 1313.889 
1473.12 1462.095 1454.619 1448.558 1442.008 1436.722 1431.954 1425.952 1419.327 1412.046 1404.474 1394 1393 1392.5 1447.38 1449.045 1427.599 1412.077 1408.227 1406.171 1403.61 1400.413 1396.904 1393.407 1390.146 1387.241 1384.737 1382.632 1380.914 1379.563 1378.557 1377.872 1377.487 1377.378 1377.513 1377.845 1378.297 1378.768 1379.156 1379.382 1379.42 1379.316 1379.14 1378.82 1378.311 1377.689 1376.545 1374.999 1373.171 1371.201 1369.217 1367.323 1365.589 1364.054 1362.734 1361.625 1360.702 1359.935 1359.311 1358.828 1358.469 1358.173 1357.845 1357.389 1356.75 1355.94 1355.084 1354.406 1354.092 1354.104 1354.32 1354.59 1354.76 1354.738 1354.629 1354.854 1355.304 1355.902 1356.733 1358.033 1359.958 1361.824 1363.239 1364.108 1364.442 1364.228 1363.532 1362.604 1361.9 1361.329 1360.545 1359.203 1357.154 1354.752 1353.472 1352.282 1350.054 1347.901 1345.649 1343.053 1340.214 1337.38 1334.988 1333.432 1332.13 1330.382 1327.801 1325.025 1322.619 1320.651 1319.149 1318.042 1317.217 1316.601 1316.079 1315.6 1315.215 1315.033 1315.126 1315.427 1315.785 1316.038 1316.106 1316.04 1315.999 1316.143 1316.345 1316.322 1315.902 1315.155 1314.338 1312.93 1310.184 
1456.896 1448.053 1441.531 1436.223 1430.991 1426.17 1421.264 1415.5 1409.048 1402.296 1395.5 1394 1393 1392.5 1434.866 1436.027 1443.46 1424.68 1421.21 1416.778 1411.39 1405.721 1400.292 1395.412 1391.224 1387.731 1384.863 1382.536 1380.682 1379.253 1378.205 1377.498 1377.097 1376.967 1377.068 1377.367 1377.782 1378.21 1378.535 1378.659 1378.536 1378.239 1378.001 1377.599 1376.894 1376.415 1375.004 1373.139 1371.046 1368.888 1366.783 1364.817 1363.048 1361.515 1360.235 1359.208 1358.402 1357.775 1357.304 1356.995 1356.846 1356.789 1356.69 1356.425 1355.92 1355.137 1354.202 1353.458 1353.242 1353.37 1353.653 1353.922 1353.971 1353.589 1352.842 1352.847 1353.102 1353.413 1353.879 1354.945 1357.316 1359.372 1360.654 1361.226 1361.289 1360.768 1359.573 1357.979 1357.105 1356.697 1356.251 1355.298 1353.398 1350.492 1350.023 1349.772 1347.583 1345.15 1342.609 1339.876 1336.82 1333.543 1330.754 1329.633 1328.999 1327.771 1325.054 1322.306 1319.966 1318.174 1316.917 1316.068 1315.456 1314.973 1314.495 1313.987 1313.543 1313.349 1313.515 1313.892 1314.246 1314.357 1314.133 1313.615 1313.063 1312.914 1312.921 1312.544 1311.405 1309.685 1308.523 1307.133 1304.295 
1446.074 1438.228 1432.076 1426.999 1422.278 1417.783 1413.185 1408.087 1402.618 1397.564 1395 1394 1393 1392.5 1392 1391 1445.062 1441.893 1435.825 1426.952 1417.828 1409.417 1402.104 1396.024 1391.162 1387.338 1384.328 1381.954 1380.1 1378.696 1377.687 1377.014 1376.628 1376.48 1376.517 1376.763 1377.117 1377.479 1377.739 1377.773 1377.465 1376.845 1376.647 1376.243 1375.054 1374.921 1373.111 1370.909 1368.614 1366.346 1364.192 1362.216 1360.462 1358.969 1357.759 1356.836 1356.166 1355.684 1355.347 1355.172 1355.209 1355.392 1355.505 1355.403 1355.038 1354.243 1353.069 1352.052 1351.924 1352.099 1352.359 1352.585 1352.579 1351.914 1350.136 1349.948 1349.943 1349.927 1349.944 1350.498 1353.484 1355.302 1355.95 1355.801 1355.485 1354.766 1353.095 1350.431 1349.353 1349.12 1349.118 1349.002 1348.326 1346.171 1345.501 1345.024 1343.385 1341.125 1338.57 1335.992 1332.967 1329.189 1325.572 1324.903 1324.879 1324.393 1321.581 1318.886 1316.775 1315.308 1314.396 1313.875 1313.527 1313.203 1312.743 1312.104 1311.424 1311.041 1311.214 1311.579 1311.801 1311.614 1310.954 1309.736 1308.249 1307.669 1307.473 1306.757 1304.702 1301.254 1299.393 1297.819 1294.871 
1439.223 1431.486 1425.31 1420.257 1415.799 1411.708 1407.768 1403.678 1399.349 1395 1395 1393 1393 1392.5 1392 1390.5 1390.5 1441.93 1439.654 1430.083 1419.286 1409.442 1401.164 1394.569 1389.615 1385.92 1383.097 1380.897 1379.189 1377.919 1377.024 1376.437 1376.094 1375.93 1375.825 1375.981 1376.22 1376.464 1376.643 1376.644 1376.239 1375.041 1374.995 1374.914 1373.375 1372.191 1370.332 1368.148 1365.88 1363.65 1361.55 1359.645 1357.953 1356.533 1355.417 1354.615 1354.094 1353.758 1353.513 1353.375 1353.537 1353.959 1354.21 1354.151 1353.98 1353.205 1351.643 1350.05 1349.974 1349.98 1349.977 1349.968 1349.925 1349.484 1347.043 1345.777 1345.185 1344.895 1344.937 1345.834 1348.263 1348.535 1347.817 1346.321 1345.563 1344.981 1343.389 1339.688 1337.87 1337.361 1337.377 1337.595 1337.978 1338.583 1339.066 1338.899 1337.734 1335.693 1333.115 1331.077 1328.61 1324.694 1320.781 1319.077 1318.464 1317.78 1316.043 1314.242 1312.831 1311.925 1311.466 1311.314 1311.252 1311.089 1310.605 1309.673 1308.436 1307.515 1307.66 1307.846 1307.709 1306.968 1305.817 1303.793 1300.791 1299.582 1299.046 1298.04 1295.348 1290.099 1286.077 1282.843 1279.303 
1433.902 1426.468 1420.312 1415.33 1411.165 1407.588 1404.515 1401.778 1399.172 1396 1395 1393 1393 1392.5 1392 1390.5 1389 1433.39 1433.387 1424.739 1414.441 1405.026 1397.131 1390.936 1386.666 1383.651 1381.352 1379.523 1378.076 1377.023 1376.299 1375.827 1375.541 1375.397 1375.002 1374.998 1374.998 1374.995 1374.988 1374.991 1374.89 1373.331 1372.472 1371.765 1370.388 1368.901 1367.125 1365.131 1363.061 1360.996 1359.046 1357.296 1355.693 1354.366 1353.35 1352.663 1352.297 1352.114 1351.909 1351.625 1351.799 1352.496 1352.7 1352.294 1352.419 1351.843 1349.977 1348.064 1347.164 1346.578 1345.974 1345.219 1344.311 1343.239 1341.432 1340.227 1339.485 1338.951 1338.565 1338.361 1338.093 1336.35 1334.335 1330.887 1329.538 1329.022 1328.207 1326.687 1325.908 1325.704 1325.731 1326.045 1327.197 1330.266 1331.648 1331.569 1330.716 1328.811 1325.728 1324.349 1322.71 1318.295 1314.479 1312.404 1311.376 1310.66 1309.795 1308.981 1308.388 1308.089 1308.055 1308.2 1308.356 1308.314 1307.775 1306.371 1304.078 1301.969 1302.286 1301.873 1300.974 1299.108 1297.482 1295.098 1290.718 1288.02 1286.23 1284.078 1280.575 1275.602 1270.922 1266.814 1263.233 
1429.952 1422.847 1416.762 1411.88 1408.058 1404.98 1402.514 1400.699 1399 1396 1394 1393 1392.5 1390 1390 1390 1388 1420.625 1419.748 1412.431 1404.398 1397.178 1390.94 1385.834 1383.003 1381.098 1379.513 1378.141 1376.977 1376.185 1375.651 1375.287 1375.001 1374.991 1374.299 1373.802 1373.368 1372.891 1372.355 1371.955 1371.495 1370.348 1369.327 1368.344 1367.056 1365.557 1363.99 1362.273 1360.518 1358.703 1356.965 1355.463 1353.91 1352.679 1351.746 1351.13 1350.891 1350.867 1350.701 1350.007 1350.021 1351.111 1350.947 1349.165 1349.551 1349.229 1347.007 1345.128 1343.873 1342.808 1341.583 1339.97 1338.023 1336.553 1335.221 1334.506 1333.892 1333.206 1332.368 1331.143 1329.079 1326.029 1325.126 1323.462 1322.428 1321.646 1320.844 1319.964 1319.357 1319.087 1319.028 1319.483 1321.001 1323.75 1323.959 1322.673 1321.908 1320.465 1316.781 1314.713 1312.986 1310.249 1307.724 1306.187 1305.066 1304.364 1304.057 1303.939 1303.914 1303.973 1304.11 1304.295 1304.452 1304.397 1303.805 1301.857 1297.883 1293.522 1294.955 1292.493 1290.389 1286.193 1283.306 1280.727 1277.65 1275.244 1273.063 1270.334 1266.705 1262.55 1258.327 1254.259 1251.062 
1427.614 1420.836 1414.953 1410.255 1406.77 1403.911 1401.214 1400 1397 1394 1393 1392 1391.5 1390 1388 1388 1387 1403.723 1401.244 1396.646 1392.44 1388.644 1384.906 1380.967 1380.001 1379.146 1378.122 1377.14 1376.172 1375.636 1375.272 1375 1374.53 1374.007 1373.441 1372.775 1372.08 1371.256 1370.195 1369.388 1368.659 1367.71 1366.714 1365.649 1364.385 1362.781 1361.477 1360.032 1358.703 1357.223 1355.743 1354.576 1352.898 1351.748 1350.863 1350.226 1350.001 1349.996 1349.961 1348.883 1348.726 1349.827 1349.085 1344.502 1343.682 1342.844 1342.659 1341.865 1340.856 1339.665 1338.139 1336.038 1333.194 1331.637 1330.529 1330.246 1329.643 1328.869 1327.982 1326.783 1325.038 1323.683 1322.642 1321.351 1320.531 1319.417 1318.343 1317.526 1316.71 1316.251 1315.833 1315.707 1316.007 1316.313 1314.67 1310.705 1309.456 1308.525 1307.567 1306.693 1305.874 1305.038 1304.096 1303.042 1301.282 1300.247 1299.974 1299.94 1299.878 1299.747 1299.549 1299.301 1299.019 1298.597 1297.897 1295.611 1289.114 1282.505 1286.892 1277.029 1274.613 1272.857 1271.096 1269.362 1267.674 1266.082 1264.079 1261.391 1258.261 1255.859 1253.16 1250.168 1249.317 
1427.358 1421.182 1415.813 1411.541 1408.57 1405.707 1401.379 1399.5 1398 1395 1395 1393 1392 1392 1391 1390.5 1387 1386.257 1385.644 1384.945 1384.141 1383.208 1382.122 1380.025 1379.418 1378.511 1377.523 1376.832 1376.085 1375.613 1375.341 1375.196 1374.996 1374.114 1373.342 1372.568 1371.896 1371.221 1370.372 1369.397 1368.144 1367.161 1366.066 1364.837 1363.448 1361.205 1360.138 1358.835 1358.054 1357.161 1356.265 1355.029 1353.11 1351.881 1351.016 1350.392 1349.996 1349.04 1348.28 1347.444 1346.865 1346.235 1345.548 1344.746 1343.58 1342.491 1341.553 1340.532 1339.394 1338.118 1336.68 1335.068 1332.953 1331.197 1330.152 1328.821 1327.556 1326.588 1325.905 1325.409 1324.956 1324.968 1323.183 1321.335 1320.214 1319.384 1318.17 1317.446 1316.313 1315.849 1315.236 1314.645 1313.952 1313.143 1312.204 1310.557 1309.667 1308.612 1307.675 1306.892 1306.74 1307.516 1309.378 1306.245 1301.416 1300.103 1298.704 1297.668 1296.605 1295.451 1294.212 1292.89 1291.484 1289.991 1288.4 1286.69 1284.832 1281.047 1279.934 1276.692 1274.946 1273.159 1271.372 1269.565 1267.727 1265.947 1263.63 1261.527 1259.328 1260.403 1259.702 1256.817 1252.771 
1430.176 1425.307 1421.224 1417.917 1415.501 1413.638 1411.588 1405.545 1400.091 1394 1394 1393 1393 1392 1391 1390.5 1390 1407.627 1398.779 1390.695 1385.842 1383.342 1381.407 1379.775 1379.015 1378.357 1377.54 1376.872 1376.28 1375.859 1375.577 1375.344 1375 1374.395 1373.936 1373.512 1373.145 1372.786 1372.359 1371.861 1371.219 1370.488 1368.922 1367.298 1365.433 1361.653 1360.154 1359.238 1358.437 1358.941 1358.924 1358.097 1356.529 1355.101 1353.901 1352.805 1351.616 1349.985 1348.347 1348.26 1349.807 1349.905 1349.827 1349.468 1346.997 1345.512 1343.664 1341.86 1340.213 1338.653 1337.082 1335.419 1333.527 1331.736 1330.264 1328.734 1327.42 1326.515 1325.817 1325.322 1325.121 1325.001 1323.952 1322.194 1320.599 1319.547 1318.342 1317.434 1316.78 1316.186 1316.519 1316.444 1315.99 1315.325 1314.763 1314.034 1313.398 1312.638 1311.972 1311.563 1311.741 1312.787 1314.417 1314.045 1311.402 1308.625 1304.228 1302.236 1300.775 1300.339 1299.94 1298.809 1296.137 1295.789 1292.477 1290.556 1289.536 1287.926 1286.657 1284.525 1281.803 1279.465 1277.661 1276.182 1274.963 1274.216 1274.034 1274.741 1275.104 1276.324 1276.115 1273.581 1268.826 
1435.03 1431.635 1428.887 1426.194 1423.577 1420.94 1417.569 1411.783 1405.407 1399.059 1394 1393 1392.5 1392 1391 1390.5 1390.5 1426.647 1412.058 1398.41 1389.526 1384.497 1381.495 1379.678 1378.738 1378.132 1377.556 1377.059 1376.629 1376.29 1376.017 1375.749 1375.406 1375.003 1374.998 1374.998 1374.996 1374.995 1374.99 1374.984 1374.977 1374.786 1372.737 1371.203 1370.056 1368.1 1366.703 1364.936 1363.859 1363.896 1363.889 1363.22 1361.706 1360.103 1358.632 1357.16 1355.401 1353.096 1350.594 1350.639 1353.029 1354.051 1353.952 1352.815 1350.363 1349.637 1346.996 1344.45 1342.287 1340.379 1338.531 1336.629 1334.625 1332.664 1330.868 1329.183 1327.756 1326.699 1325.941 1325.484 1325.356 1325.359 1324.989 1323.52 1321.972 1321.727 1321.281 1320.823 1320.48 1320.233 1320.418 1320.43 1320.269 1319.954 1319.682 1319.428 1319.111 1318.703 1318.354 1318.192 1318.342 1318.897 1319.986 1323.246 1323.427 1322.278 1319.832 1317.201 1312.802 1311.929 1310.729 1307.414 1303.052 1301.725 1300.709 1300.258 1300.162 1299.804 1298.947 1296.594 1292.192 1289.373 1287.852 1286.965 1286.516 1286.856 1288.644 1292.32 1294.34 1295.592 1295.613 1293.685 1289.182 
1441.594 1439.359 1437.68 1434.89 1431.312 1427.355 1423.402 1418.718 1413.626 1408.276 1403.039 1394 1392.5 1392 1426.183 1436.044 1438.018 1427.817 1413.142 1399.972 1390.61 1384.786 1381.348 1379.429 1378.464 1377.963 1377.617 1377.344 1377.11 1376.903 1376.707 1376.503 1376.292 1376.149 1376.26 1376.446 1376.634 1376.791 1376.895 1376.916 1376.783 1376.276 1375.017 1374.93 1374.927 1374.767 1374.161 1371.499 1370.207 1369.926 1369.83 1369.241 1367.46 1365.782 1364.374 1363.026 1361.502 1359.74 1358.216 1358.256 1359.468 1359.734 1358.924 1357.186 1354.796 1352.853 1350.024 1347.234 1344.822 1342.671 1340.519 1338.282 1335.989 1333.748 1331.664 1329.78 1328.188 1326.958 1326.084 1325.573 1325.391 1325.379 1325.286 1324.995 1324.928 1324.969 1324.964 1324.948 1324.938 1324.92 1324.952 1324.956 1324.943 1324.956 1324.927 1324.899 1324.914 1324.93 1324.909 1324.848 1324.792 1324.771 1325.032 1327.46 1328.845 1328.817 1327.448 1325.458 1323.666 1323.502 1322.372 1318.21 1314.797 1313.285 1312.972 1312.988 1313.099 1312.822 1311.338 1307.552 1302.82 1300.723 1300.038 1299.81 1299.796 1300.277 1301.927 1305.33 1307.782 1309.19 1309.346 1307.703 1304.072 
1449.998 1448.057 1446.963 1442.833 1437.361 1432.716 1429.229 1426.429 1424.081 1421.861 1419.16 1394 1392.5 1430.857 1442.845 1447.303 1438.138 1419.859 1407.261 1396.89 1389.113 1383.91 1380.735 1378.99 1378.175 1377.863 1377.763 1377.739 1377.731 1377.701 1377.632 1377.533 1377.44 1377.425 1377.561 1377.777 1377.99 1378.131 1378.143 1377.966 1377.53 1376.74 1375.658 1375.189 1376.121 1376.795 1376.574 1375.095 1374.926 1374.953 1374.975 1374.661 1372.393 1371.016 1370.127 1369.369 1368.569 1367.725 1367.107 1367.136 1367.318 1366.198 1364.334 1361.901 1359.094 1356.272 1353.117 1350.036 1347.471 1345.19 1342.725 1340.101 1337.435 1334.855 1332.471 1330.353 1328.564 1327.153 1326.138 1325.524 1325.25 1325.138 1325.014 1324.996 1325.686 1326.377 1326.932 1327.365 1327.691 1327.9 1328.075 1328.154 1328.267 1328.537 1328.655 1328.62 1328.927 1329.481 1329.765 1329.511 1328.864 1328.11 1327.726 1329.465 1331.028 1331.397 1330.343 1328.18 1325.875 1326.834 1326.839 1325.097 1324.215 1323.724 1323.959 1324.259 1324.47 1324.277 1322.721 1318.282 1314.796 1313.306 1312.937 1312.93 1313.037 1313.419 1314.47 1316.299 1317.795 1318.699 1318.71 1317.03 1314.027 
1461.135 1457.492 1455.638 1447.964 1441.234 1436.794 1434.496 1433.855 1434.569 1436.505 1439.071 1438.346 1439.687 1443.952 1448.375 1447.71 1435.558 1415.933 1403.063 1393.948 1387.368 1382.89 1380.119 1378.625 1378.01 1377.914 1378.062 1378.292 1378.52 1378.689 1378.767 1378.766 1378.734 1378.727 1378.792 1378.92 1379.042 1379.066 1378.911 1378.508 1377.823 1376.882 1375.887 1375.427 1376.274 1377.164 1377.494 1377.253 1377.44 1377.636 1377.561 1376.862 1375.127 1374.963 1374.96 1374.949 1374.916 1374.858 1374.818 1374.826 1374.426 1371.879 1369.192 1366.229 1362.986 1359.604 1356.123 1352.836 1350.035 1347.719 1344.897 1341.871 1338.83 1335.91 1333.225 1330.855 1328.85 1327.249 1326.087 1325.387 1325.099 1325.008 1324.997 1325.012 1325.956 1327.017 1327.969 1328.761 1329.387 1329.83 1330.17 1330.406 1330.577 1331.002 1331.332 1331.263 1331.586 1332.586 1333.312 1333.045 1332.015 1330.917 1330.422 1331.103 1332.296 1332.563 1331.602 1329.724 1327.895 1328.359 1328.596 1327.852 1326.914 1325.955 1327.86 1329.562 1330.566 1330.599 1329.116 1325.974 1324.709 1324.406 1324.438 1324.506 1324.525 1324.549 1324.687 1324.96 1325.115 1325.131 1324.763 1322.557 1319.854 
1474.365 1469.87 1458.499 1449.751 1443.417 1440.011 1439.039 1439.867 1442.141 1445.597 1448.824 1449.612 1449.965 1450.381 1450.514 1449.179 1438.184 1420.445 1404.406 1394.446 1387.646 1383.072 1380.249 1378.76 1378.214 1378.261 1378.612 1379.071 1379.521 1379.879 1380.095 1380.166 1380.129 1380.031 1379.917 1379.859 1379.811 1379.679 1379.364 1378.797 1377.973 1376.987 1376.07 1375.643 1376.184 1376.993 1377.659 1378.102 1378.591 1378.946 1378.974 1378.539 1377.797 1377.861 1378.214 1378.609 1378.95 1379.167 1379.172 1378.801 1377.632 1375.089 1372.65 1369.652 1366.209 1362.484 1358.689 1355.158 1352.21 1349.87 1346.667 1343.379 1340.076 1336.876 1333.919 1331.304 1329.08 1327.284 1325.967 1325.199 1325.004 1324.999 1325.008 1325.401 1326.364 1327.53 1328.677 1329.704 1330.557 1331.214 1331.687 1332.076 1332.332 1332.707 1333.331 1333.308 1333.459 1334.61 1335.838 1335.87 1334.755 1333.498 1332.957 1333.303 1333.867 1333.743 1332.738 1331.13 1329.707 1329.564 1329.565 1329.096 1328.379 1328.002 1329.975 1332.155 1333.733 1334.356 1333.83 1332.537 1332.083 1332.188 1332.395 1332.463 1332.337 1332.042 1331.62 1331.087 1330.397 1329.448 1327.909 1325.189 1322.879 
1485.676 1478.316 1465.876 1454.056 1446.998 1444.046 1443.749 1444.789 1446.789 1449.697 1450.496 1453.449 1455.168 1455.767 1455.499 1453.375 1445.214 1429.637 1412.087 1399.818 1391.2 1385.354 1381.719 1379.772 1379.026 1379.06 1379.525 1380.157 1380.786 1381.294 1381.606 1381.698 1381.594 1381.331 1380.945 1380.609 1380.342 1380.051 1379.621 1378.975 1378.115 1377.153 1376.3 1375.843 1376.079 1376.679 1377.461 1378.241 1378.97 1379.513 1379.762 1379.713 1379.578 1379.814 1380.285 1380.806 1381.236 1381.452 1381.313 1380.641 1379.229 1377.07 1374.907 1372.076 1368.638 1364.695 1360.555 1356.576 1353.038 1350.024 1347.472 1344.486 1341.154 1337.771 1334.586 1331.748 1329.323 1327.342 1325.861 1325.002 1325 1325.005 1325.315 1325.954 1326.961 1328.165 1329.406 1330.576 1331.597 1332.423 1333.035 1333.472 1333.917 1334.082 1334.885 1335.139 1335.029 1336.021 1337.615 1338.142 1337.226 1335.896 1335.233 1335.402 1335.695 1335.287 1334.176 1332.661 1331.329 1330.921 1330.668 1330.241 1329.783 1329.856 1331.51 1333.62 1335.461 1336.664 1337.115 1337.093 1337.258 1337.585 1337.829 1337.818 1337.517 1336.955 1336.154 1335.129 1333.853 1332.241 1330.136 1327.501 1324.847 
1496.769 1488.293 1476.093 1463.644 1454.134 1450.463 1449.786 1449.862 1450.29 1452.395 1453.969 1456.606 1458.77 1459.949 1460.056 1458.294 1452.526 1441.622 1425.707 1409.929 1398.178 1389.977 1384.772 1381.875 1380.616 1380.441 1380.897 1381.623 1382.365 1382.952 1383.279 1383.307 1383.054 1382.552 1381.808 1381.17 1380.688 1380.266 1379.777 1379.128 1378.313 1377.429 1376.651 1376.167 1376.104 1376.404 1377.186 1378.119 1379.007 1379.718 1380.183 1380.439 1380.641 1380.994 1381.479 1381.974 1382.334 1382.421 1382.093 1381.21 1379.672 1377.521 1375.087 1373.413 1370.305 1366.244 1361.799 1357.416 1353.431 1350.102 1348.371 1345.607 1342.198 1338.642 1335.265 1332.245 1329.659 1327.543 1325.946 1325.002 1325.21 1325.393 1325.876 1326.678 1327.764 1329.023 1330.337 1331.608 1332.758 1333.716 1334.461 1334.937 1335.442 1335.623 1336.151 1336.947 1336.652 1337.249 1338.97 1340.007 1339.448 1338.151 1337.335 1337.334 1337.563 1337.153 1336.005 1334.494 1333.094 1332.768 1332.306 1331.755 1331.357 1331.546 1332.782 1334.592 1336.473 1338.071 1339.239 1340.039 1340.693 1341.203 1341.458 1341.355 1340.887 1340.094 1339.003 1337.629 1335.943 1333.86 1331.299 1328.31 1325.017 
1505.963 1498.483 1487.608 1475.927 1466.089 1460.277 1457.364 1455.826 1455.221 1455.994 1457.341 1459.435 1461.523 1463.019 1463.555 1462.54 1458.801 1451.382 1439.943 1424.193 1408.087 1396.66 1389.325 1385.099 1383.059 1382.482 1382.796 1383.521 1384.286 1384.849 1385.069 1384.898 1384.346 1383.431 1382.419 1381.561 1380.923 1380.425 1379.928 1379.326 1378.602 1377.834 1377.153 1376.671 1376.406 1376.348 1377.085 1378.031 1378.977 1379.792 1380.414 1380.868 1381.252 1381.668 1382.112 1382.507 1382.73 1382.646 1382.145 1381.15 1379.667 1377.884 1376.199 1374.931 1371.545 1367.238 1362.565 1357.992 1354.022 1351.228 1349.918 1346.807 1343.161 1339.449 1335.943 1332.809 1330.131 1327.965 1326.387 1325.533 1325.558 1325.888 1326.559 1327.541 1328.763 1330.129 1331.54 1332.909 1334.166 1335.241 1336.078 1336.656 1337.061 1337.397 1337.557 1338.592 1338.569 1338.621 1340.204 1341.651 1341.492 1340.293 1339.341 1339.161 1339.436 1339.172 1338.152 1336.842 1335.732 1335.28 1334.467 1333.645 1333.056 1333.05 1333.88 1335.35 1337.121 1338.9 1340.499 1341.823 1342.856 1343.547 1343.841 1343.694 1343.111 1342.142 1340.823 1339.178 1337.198 1334.786 1331.86 1328.506 1324.976 
1514.273 1507.262 1498.212 1487.699 1477.662 1470.277 1465.405 1462.195 1460.285 1459.775 1460.355 1461.78 1463.502 1464.994 1465.768 1465.375 1463.108 1458.186 1449.887 1437.616 1420.091 1404.862 1395.126 1389.356 1386.338 1385.191 1385.232 1385.852 1386.533 1386.936 1386.891 1386.346 1385.329 1384.102 1382.895 1381.897 1381.171 1380.645 1380.177 1379.644 1379.012 1378.365 1377.814 1377.434 1377.205 1377.04 1377.418 1378.146 1379.016 1379.859 1380.576 1381.152 1381.636 1382.078 1382.469 1382.744 1382.804 1382.541 1381.876 1380.776 1379.294 1377.625 1376.114 1374.95 1371.738 1367.537 1362.857 1358.165 1354.011 1351.091 1349.96 1347.169 1343.701 1340.064 1336.571 1333.41 1330.698 1328.512 1326.944 1326.096 1326.01 1326.451 1327.32 1328.516 1329.935 1331.469 1333.016 1334.498 1335.853 1337.023 1337.948 1338.585 1338.985 1339.247 1339.39 1340.098 1340.606 1340.418 1341.586 1343.209 1343.433 1342.397 1341.438 1341.262 1341.565 1341.395 1340.321 1339.045 1337.922 1336.993 1336.582 1335.707 1334.866 1334.531 1334.967 1336.097 1337.655 1339.404 1341.174 1342.796 1344.117 1345.001 1345.387 1345.264 1344.655 1343.602 1342.145 1340.33 1338.161 1335.563 1332.449 1328.862 1325.154 
1521.41 1514.108 1505.637 1496.599 1486.526 1478.412 1472.389 1467.959 1464.829 1463.101 1462.732 1463.417 1464.615 1465.873 1466.661 1466.562 1465.122 1461.718 1455.53 1445.566 1429.648 1414.071 1401.987 1394.579 1390.404 1388.512 1388.147 1388.555 1389.018 1389.088 1388.574 1387.461 1386.084 1384.656 1383.352 1382.305 1381.559 1381.047 1380.62 1380.138 1379.55 1378.97 1378.512 1378.235 1378.097 1377.742 1377.831 1378.344 1379.111 1379.952 1380.732 1381.396 1381.95 1382.408 1382.755 1382.93 1382.839 1382.405 1381.576 1380.349 1378.768 1376.937 1375.034 1373.781 1371.162 1367.413 1362.963 1358.256 1353.771 1350.132 1349.241 1347.042 1343.951 1340.533 1337.154 1334.037 1331.32 1329.11 1327.513 1326.628 1326.504 1327.059 1328.141 1329.592 1331.259 1333.011 1334.734 1336.343 1337.786 1339.025 1340.009 1340.706 1341.087 1341.325 1341.365 1341.836 1342.459 1342.532 1343.364 1344.823 1345.257 1344.437 1343.554 1343.405 1343.79 1343.816 1342.479 1341.128 1340.158 1339.485 1339.081 1337.927 1336.802 1336.139 1336.228 1337.034 1338.31 1339.839 1341.532 1343.243 1344.75 1345.833 1346.373 1346.354 1345.802 1344.766 1343.297 1341.448 1339.249 1336.654 1333.65 1330.383 1327.279 
1527.234 1519.011 1509.814 1500.236 1491.498 1483.776 1477.431 1472.37 1468.403 1465.624 1464.258 1464.155 1464.78 1465.649 1466.311 1466.252 1465.116 1462.399 1457.348 1448.997 1436.094 1422.126 1409.799 1400.665 1395.132 1392.293 1391.385 1391.483 1391.554 1391.052 1389.805 1388.249 1386.648 1385.15 1383.866 1382.87 1382.174 1381.703 1381.308 1380.826 1380.17 1379.556 1379.066 1378.7 1378.355 1378.051 1378.088 1378.512 1379.222 1380.069 1380.91 1381.656 1382.28 1382.77 1383.098 1383.204 1383.006 1382.433 1381.465 1380.132 1378.51 1376.735 1374.994 1373.291 1370.843 1367.467 1363.362 1358.925 1354.711 1351.468 1349.944 1347.348 1344.289 1341.016 1337.761 1334.706 1331.99 1329.734 1328.068 1327.121 1326.988 1327.692 1329.027 1330.773 1332.729 1334.732 1336.65 1338.388 1339.9 1341.171 1342.174 1342.903 1343.317 1343.498 1343.439 1343.806 1344.211 1344.657 1345.457 1346.566 1346.975 1346.368 1345.662 1345.522 1345.794 1345.665 1344.421 1343.107 1342.221 1341.549 1340.707 1339.946 1338.858 1337.999 1337.848 1338.381 1339.322 1340.471 1341.863 1343.445 1344.996 1346.231 1346.964 1347.118 1346.702 1345.771 1344.403 1342.666 1340.586 1338.146 1335.396 1332.561 1330.036 
1532.692 1523.308 1513.025 1502.556 1494.819 1487.187 1480.534 1475.137 1470.749 1467.259 1464.928 1463.966 1463.989 1464.423 1464.85 1464.755 1463.693 1461.285 1456.948 1450.054 1440.552 1428.823 1417.133 1407.323 1400.282 1396.272 1394.666 1394.381 1393.803 1392.391 1390.609 1388.777 1387.093 1385.649 1384.49 1383.63 1383.034 1382.604 1382.189 1381.623 1380.756 1380.024 1379.415 1378.848 1378.419 1378.18 1378.256 1378.675 1379.371 1380.23 1381.127 1381.957 1382.663 1383.208 1383.553 1383.635 1383.375 1382.718 1381.65 1380.225 1378.541 1376.737 1374.99 1373.246 1371.005 1367.972 1364.209 1360.035 1355.937 1352.476 1349.982 1347.538 1344.69 1341.589 1338.459 1335.464 1332.731 1330.397 1328.623 1327.592 1327.47 1328.367 1330.006 1332.09 1334.362 1336.625 1338.733 1340.582 1342.126 1343.38 1344.338 1345.073 1345.569 1345.69 1345.628 1345.634 1346.32 1346.56 1347.677 1348.341 1348.536 1348.198 1347.792 1347.734 1347.893 1347.76 1346.512 1345.296 1344.551 1344.084 1343.5 1342.698 1341.443 1340.331 1340.03 1340.365 1340.952 1341.638 1342.473 1343.706 1345.123 1346.406 1347.292 1347.639 1347.412 1346.65 1345.46 1343.936 1342.082 1339.874 1337.375 1334.804 1332.41 
1538.559 1528.201 1517.285 1506.845 1498.377 1489.471 1482.033 1476.288 1471.788 1468.012 1464.974 1463.075 1462.411 1462.439 1462.568 1462.402 1461.465 1459.386 1455.832 1450.54 1444.409 1434.494 1423.53 1413.58 1405.694 1400.264 1397.66 1396.854 1395.182 1393.208 1391.148 1389.212 1387.56 1386.255 1385.285 1384.598 1384.097 1383.641 1383.047 1382.117 1381.095 1380.218 1379.505 1378.917 1378.513 1378.352 1378.491 1378.936 1379.633 1380.497 1381.425 1382.321 1383.109 1383.731 1384.128 1384.229 1383.962 1383.274 1382.165 1380.691 1378.941 1377.01 1375.031 1373.651 1371.736 1369.029 1365.563 1361.574 1357.431 1353.518 1350.133 1348.142 1345.413 1342.39 1339.341 1336.378 1333.597 1331.139 1329.21 1328.066 1327.966 1329.116 1331.127 1333.596 1336.193 1338.694 1340.96 1342.879 1344.398 1345.594 1346.397 1347.096 1347.797 1347.863 1347.785 1347.7 1348.035 1348.692 1349.925 1350.011 1350.015 1350.01 1349.996 1349.993 1350.007 1349.96 1348.555 1347.669 1347.222 1346.995 1346.707 1346.086 1344.737 1343.191 1342.867 1343.092 1343.283 1343.472 1343.74 1344.327 1345.396 1346.577 1347.515 1347.999 1347.953 1347.396 1346.426 1345.151 1343.566 1341.618 1339.353 1336.917 1334.443 
1545.242 1533.745 1521.727 1510.076 1499.683 1490.1 1482.17 1476.173 1471.727 1468.033 1464.668 1461.978 1460.48 1460.07 1459.935 1459.618 1458.841 1457.281 1454.792 1451.58 1448.096 1438.839 1428.517 1418.911 1410.874 1404.671 1400.233 1398.025 1395.981 1393.85 1391.725 1389.798 1388.236 1387.098 1386.322 1385.779 1385.3 1384.684 1383.692 1382.538 1381.411 1380.46 1379.716 1379.162 1378.823 1378.74 1378.941 1379.413 1380.107 1380.957 1381.883 1382.805 1383.647 1384.339 1384.806 1384.966 1384.74 1384.083 1383.002 1381.57 1379.898 1378.118 1376.406 1374.994 1373.161 1370.663 1367.443 1363.635 1359.538 1355.543 1352.129 1349.815 1346.593 1343.494 1340.491 1337.536 1334.662 1332.019 1329.873 1328.574 1328.503 1329.986 1332.461 1335.365 1338.268 1340.943 1343.309 1345.236 1346.628 1347.791 1348.269 1348.803 1349.959 1350.01 1350.005 1350 1349.988 1350.087 1351.464 1352.032 1352.223 1352.306 1352.313 1352.177 1351.864 1351.267 1350.048 1349.983 1349.983 1349.989 1350 1349.985 1349.483 1346.545 1346.307 1346.458 1346.08 1345.778 1345.514 1345.553 1346.037 1346.95 1347.784 1348.29 1348.364 1347.992 1347.257 1346.232 1344.91 1343.222 1341.2 1338.918 1336.415 
1553.002 1540.167 1526.602 1513.115 1500.651 1490.485 1482.009 1475.653 1471.232 1467.794 1464.446 1461.215 1458.896 1457.972 1457.436 1456.89 1456.148 1454.969 1453.033 1450.171 1447.135 1440.139 1431.493 1422.974 1415.503 1409.33 1403.97 1400.119 1397.42 1394.998 1392.741 1390.782 1389.281 1388.279 1387.65 1387.161 1386.557 1385.573 1384.366 1383.1 1381.924 1380.954 1380.226 1379.729 1379.463 1379.45 1379.702 1380.195 1380.881 1381.699 1382.591 1383.493 1384.341 1385.066 1385.588 1385.816 1385.665 1385.087 1384.096 1382.772 1381.244 1379.653 1378.126 1376.697 1374.996 1372.718 1369.75 1366.147 1362.117 1357.95 1353.927 1350.236 1347.586 1344.851 1342.005 1339.051 1336.022 1333.11 1330.664 1329.155 1329.111 1331.032 1334.089 1337.484 1340.632 1343.338 1345.72 1347.601 1348.624 1349.954 1350.004 1350.069 1351.47 1352.235 1352.624 1352.834 1352.946 1353.216 1354.181 1354.818 1355.081 1355.127 1354.999 1354.661 1354.076 1353.278 1352.416 1352.237 1352.285 1352.381 1352.452 1352.373 1351.73 1350.038 1349.95 1349.899 1348.684 1348.113 1347.436 1347.102 1347.167 1347.661 1348.215 1348.598 1348.693 1348.454 1347.933 1347.14 1346.06 1344.632 1342.865 1340.805 1338.376 
1562.028 1547.839 1532.634 1517.331 1503.084 1492.258 1482.754 1475.779 1471.311 1468.194 1465.066 1461.49 1458.353 1457.082 1455.725 1454.634 1453.837 1453.043 1451.879 1449.979 1446.824 1440.748 1433.398 1426.054 1419.377 1413.414 1408.021 1403.56 1400.018 1397.051 1394.456 1392.312 1390.764 1389.828 1389.266 1388.691 1387.764 1386.59 1385.288 1383.984 1382.796 1381.829 1381.13 1380.69 1380.49 1380.532 1380.818 1381.324 1381.999 1382.785 1383.626 1384.475 1385.28 1385.981 1386.509 1386.778 1386.7 1386.223 1385.353 1384.168 1382.794 1381.361 1379.957 1378.569 1376.994 1374.992 1372.333 1369.008 1365.165 1361.052 1356.938 1353.114 1350.002 1347.066 1344.14 1341.073 1337.778 1334.482 1331.637 1329.848 1329.825 1332.305 1336.092 1340.047 1343.321 1345.762 1348.048 1349.923 1350.08 1351.465 1352.218 1352.877 1354.104 1355.117 1355.804 1356.232 1356.573 1356.891 1357.593 1358.182 1358.437 1358.428 1358.169 1357.639 1356.856 1355.903 1355.024 1354.58 1354.428 1354.388 1354.32 1354.091 1353.486 1352.495 1351.982 1351.295 1350.031 1349.973 1349.062 1348.694 1348.626 1348.619 1348.8 1348.954 1348.986 1348.82 1348.467 1347.879 1347.015 1345.849 1344.369 1342.574 1340.325 
1572.454 1557.026 1540.296 1523.511 1508.242 1496.133 1484.885 1477.31 1473.085 1470.51 1467.764 1463.906 1459.675 1458.314 1455.4 1453.225 1452.115 1451.604 1451.107 1450.012 1447.528 1441.561 1435.098 1428.86 1423.104 1417.602 1412.373 1407.658 1403.555 1399.993 1396.902 1394.393 1392.654 1391.701 1391.107 1390.257 1389.183 1387.933 1386.612 1385.314 1384.128 1383.158 1382.476 1382.079 1381.932 1382.009 1382.305 1382.805 1383.466 1384.229 1385.032 1385.821 1386.549 1387.173 1387.641 1387.888 1387.842 1387.448 1386.699 1385.655 1384.421 1383.111 1381.796 1380.466 1379.008 1377.246 1374.983 1372.035 1368.507 1364.63 1360.655 1356.826 1353.341 1350.031 1346.886 1343.639 1339.959 1336.161 1332.823 1330.689 1330.668 1333.812 1338.484 1343.121 1346.378 1348.02 1350.001 1351.742 1352.653 1353.946 1355.09 1356.193 1357.459 1358.597 1359.467 1360.076 1360.497 1360.93 1361.328 1361.833 1362.063 1361.999 1361.665 1361.033 1360.128 1359.039 1357.97 1357.18 1356.681 1356.345 1356.018 1355.582 1354.958 1354.175 1353.458 1352.58 1351.515 1350.892 1350.011 1349.997 1349.992 1349.509 1349.422 1349.33 1349.27 1349.123 1348.889 1348.469 1347.813 1346.89 1345.727 1344.23 1342.209 
1584.301 1567.873 1549.522 1530.786 1513.406 1498.946 1487.462 1480.592 1477.543 1476.077 1473.977 1470.184 1465.467 1461.427 1456.605 1452.991 1451.223 1450.712 1450.736 1450.652 1449.428 1443.001 1437.436 1432.35 1427.27 1422.154 1417.082 1412.223 1407.716 1403.613 1399.983 1396.958 1394.871 1393.847 1393.07 1392.092 1390.999 1389.731 1388.42 1387.15 1385.96 1384.97 1384.282 1383.913 1383.807 1383.901 1384.175 1384.628 1385.253 1386.003 1386.797 1387.551 1388.199 1388.708 1389.053 1389.207 1389.123 1388.759 1388.096 1387.167 1386.051 1384.835 1383.584 1382.307 1380.944 1379.375 1377.436 1374.975 1371.873 1368.345 1364.619 1360.855 1357.154 1353.533 1350.045 1346.632 1342.458 1338.082 1334.202 1331.693 1331.639 1335.435 1341.061 1346.57 1349.798 1350.186 1352.143 1354.011 1355.463 1356.93 1358.348 1359.739 1361.137 1362.393 1363.394 1364.119 1364.57 1364.911 1365.27 1365.544 1365.74 1365.624 1365.201 1364.522 1363.591 1362.458 1361.236 1360.126 1359.249 1358.549 1357.9 1357.201 1356.429 1355.615 1354.8 1353.89 1352.914 1352.088 1351.329 1350.986 1350.619 1350.004 1349.998 1349.683 1349.584 1349.401 1349.237 1348.942 1348.47 1347.785 1346.925 1345.749 1343.983 
1598.079 1580.869 1560.799 1539.736 1519.775 1502.954 1491.789 1486.605 1485.617 1485.64 1483.981 1479.504 1473.566 1467.387 1460.831 1454.782 1451.5 1450.377 1450.281 1450.417 1449.989 1446.503 1441.681 1436.797 1431.935 1427.033 1422.085 1417.161 1412.372 1407.818 1403.617 1399.994 1397.396 1396.429 1395.283 1394.285 1393.317 1392.022 1390.727 1389.498 1388.276 1387.238 1386.534 1386.189 1386.125 1386.229 1386.444 1386.783 1387.318 1388.045 1388.865 1389.634 1390.226 1390.603 1390.776 1390.771 1390.584 1390.182 1389.548 1388.69 1387.654 1386.503 1385.292 1384.05 1382.753 1381.325 1379.639 1377.553 1374.977 1371.881 1368.487 1364.867 1361.013 1357.052 1353.198 1349.577 1344.922 1340.057 1335.692 1332.827 1332.693 1336.86 1343.163 1349.483 1352.301 1353.388 1355.01 1356.785 1358.456 1360.096 1361.704 1363.285 1364.818 1366.189 1367.293 1368.123 1368.523 1368.744 1368.952 1369.132 1369.303 1369.149 1368.55 1367.776 1366.847 1365.777 1364.558 1363.285 1362.118 1361.102 1360.148 1359.177 1358.183 1357.214 1356.283 1355.342 1354.388 1353.495 1352.713 1352.116 1351.531 1350.9 1350.491 1350.002 1349.999 1349.688 1349.577 1349.331 1349.013 1348.533 1347.948 1347.08 1345.583 
1614.652 1596.772 1574.977 1551.594 1529.343 1510.939 1499.268 1496.212 1497.801 1499.087 1497.015 1490.34 1482.387 1474.562 1467.046 1459.993 1452.821 1450.649 1450.086 1450.048 1450.645 1449.713 1445.607 1441.102 1436.55 1431.938 1427.208 1422.364 1417.479 1412.655 1408.021 1403.785 1400.422 1399.729 1397.761 1396.886 1396.231 1394.746 1393.479 1392.353 1391.02 1389.897 1389.193 1388.897 1388.892 1389.012 1389.135 1389.259 1389.608 1390.275 1391.151 1392 1392.565 1392.811 1392.771 1392.567 1392.234 1391.741 1391.074 1390.231 1389.229 1388.109 1386.915 1385.683 1384.422 1383.088 1381.582 1379.78 1377.594 1374.993 1372.014 1368.641 1364.638 1360.17 1355.422 1350.533 1346.772 1341.886 1337.176 1333.989 1333.677 1337.723 1343.884 1349.936 1353.515 1355.674 1357.633 1359.56 1361.41 1363.198 1364.927 1366.606 1368.235 1369.689 1370.829 1371.835 1372.101 1372.166 1372.251 1372.323 1372.448 1372.394 1371.573 1370.676 1369.683 1368.69 1367.593 1366.358 1365.068 1363.851 1362.698 1361.531 1360.336 1359.172 1358.084 1357.056 1356.065 1355.121 1354.26 1353.498 1352.769 1352.067 1351.442 1350.85 1350.468 1350.002 1349.999 1349.67 1349.49 1349.133 1348.771 1348.201 1346.978 
1635.385 1616.073 1592.646 1567.111 1542.886 1522.818 1509.82 1509.596 1513.702 1514.718 1510.371 1499.505 1489.063 1479.885 1471.753 1464.412 1451.537 1451.08 1450.674 1450.78 1450.989 1450.037 1447.803 1444.498 1440.669 1436.568 1432.257 1427.7 1422.963 1418.161 1413.455 1409.091 1405.478 1403.112 1400.424 1400.007 1399.755 1397.654 1396.573 1395.74 1394.096 1392.868 1392.232 1392.038 1392.115 1392.263 1392.267 1392.01 1392.049 1392.601 1393.554 1394.565 1395.107 1395.219 1394.918 1394.509 1394.042 1393.433 1392.691 1391.806 1390.788 1389.661 1388.459 1387.216 1385.964 1384.681 1383.287 1381.677 1379.773 1377.55 1375.01 1372.055 1367.996 1363.256 1358.217 1353.386 1349.425 1343.795 1338.61 1335.088 1334.551 1338.318 1344.139 1349.918 1354.128 1357.233 1359.801 1362.082 1364.16 1366.078 1367.85 1369.512 1371.174 1372.646 1373.571 1374.928 1375.01 1375.002 1375.001 1375.004 1375.005 1374.962 1373.868 1373.129 1372.08 1371.159 1370.176 1369.09 1367.847 1366.55 1365.303 1364.061 1362.775 1361.477 1360.236 1359.082 1358.008 1356.99 1356.045 1355.163 1354.315 1353.526 1352.772 1352.064 1351.462 1350.889 1350.493 1350.003 1349.998 1349.595 1349.414 1349.143 1348.179 
1661.237 1639.79 1613.852 1586.7 1561.407 1540.989 1527.845 1527.745 1531.818 1527.876 1515.948 1502.083 1490.075 1480.201 1471.588 1463.42 1455.202 1453.232 1452.66 1452.52 1452.326 1451.511 1449.976 1447.437 1444.286 1440.798 1437.096 1433.026 1428.666 1424.139 1419.635 1415.382 1411.669 1408.682 1405.899 1404.334 1402.805 1400.4 1400.007 1399.67 1397.32 1396.13 1395.724 1395.679 1395.812 1395.97 1395.847 1394.923 1394.538 1394.927 1395.954 1397.253 1397.685 1397.674 1397.012 1396.456 1395.948 1395.223 1394.393 1393.422 1392.335 1391.165 1389.934 1388.668 1387.403 1386.134 1384.793 1383.275 1381.512 1379.486 1377.239 1374.758 1370.766 1365.968 1360.622 1355.164 1349.989 1344.838 1339.746 1336.038 1335.333 1339.008 1344.606 1349.928 1354.635 1358.509 1361.676 1364.344 1366.659 1368.686 1370.413 1371.862 1373.471 1374.947 1375.058 1376.397 1377.026 1377.264 1377.292 1377.165 1376.86 1376.216 1375.033 1374.974 1373.919 1373.248 1372.323 1371.418 1370.284 1369.012 1367.749 1366.511 1365.243 1363.927 1362.615 1361.36 1360.191 1359.094 1358.07 1357.092 1356.148 1355.27 1354.415 1353.601 1352.871 1352.186 1351.564 1350.96 1350.55 1350.004 1350.001 1349.997 1349.206 
1692.534 1668.626 1640.179 1610.52 1584.321 1565.008 1553.423 1548.442 1547.795 1531.941 1514.378 1499.002 1487.139 1478.167 1470.592 1463.328 1459.063 1457.136 1456.086 1455.313 1454.507 1453.43 1451.974 1449.976 1447.387 1444.522 1441.631 1438.192 1434.382 1430.301 1426.172 1422.176 1418.48 1415.252 1412.417 1410.201 1408.091 1405.875 1404.541 1403.034 1400.51 1400.014 1399.991 1400.009 1400.022 1400.019 1399.753 1397.764 1397.041 1397.244 1398.176 1399.911 1400.017 1399.957 1398.776 1398.268 1397.916 1397.036 1396.162 1395.075 1393.866 1392.618 1391.347 1390.058 1388.776 1387.498 1386.16 1384.651 1382.877 1380.766 1378.228 1375.19 1372.535 1368.251 1362.822 1356.793 1350.701 1346.308 1341.099 1336.98 1336.037 1340.114 1345.999 1350.495 1355.617 1359.971 1363.523 1366.456 1368.944 1371.058 1372.698 1373.6 1375.001 1376.354 1377.057 1378.115 1378.863 1379.237 1379.3 1379.079 1378.583 1377.766 1376.702 1376.032 1375.024 1374.974 1373.988 1373.367 1372.325 1371.113 1369.918 1368.73 1367.528 1366.285 1365.004 1363.728 1362.508 1361.354 1360.273 1359.233 1358.218 1357.257 1356.317 1355.411 1354.597 1353.829 1353.086 1352.38 1351.774 1351.222 1350.951 1350.655 1350.015 
1726.285 1700.933 1669.358 1636.624 1608.165 1589.531 1579.156 1570.37 1547.636 1526.356 1507.567 1492.919 1482.855 1476.458 1472.153 1468.605 1465.208 1462.681 1460.671 1458.917 1457.281 1455.659 1453.965 1452.081 1449.965 1447.642 1445.84 1443.024 1439.897 1436.343 1432.725 1429.129 1425.577 1422.36 1419.612 1417.243 1414.948 1412.685 1410.75 1408.794 1406.779 1405.93 1405.609 1405.347 1404.932 1404.192 1402.793 1400.379 1399.989 1399.984 1400.157 1401.585 1401.901 1401.401 1400.074 1400.003 1399.956 1398.726 1397.993 1396.754 1395.363 1394.01 1392.704 1391.408 1390.119 1388.828 1387.472 1385.944 1384.149 1382.035 1379.612 1377.053 1374.757 1370.616 1365.303 1359.395 1353.72 1349.156 1342.893 1337.989 1336.675 1341.639 1348.919 1353.312 1357.789 1361.95 1365.518 1368.505 1371.045 1373.228 1374.936 1375.065 1376.501 1377.924 1378.984 1379.979 1380.724 1381.135 1381.203 1380.946 1380.363 1379.522 1378.496 1377.555 1376.602 1375.993 1375.022 1374.979 1373.932 1372.786 1371.786 1370.685 1369.545 1368.402 1367.222 1366.009 1364.808 1363.649 1362.553 1361.492 1360.441 1359.433 1358.423 1357.439 1356.565 1355.741 1354.929 1354.159 1353.462 1352.842 1352.358 1351.9 1351.412 
1757.346 1731.477 1698.029 1661.55 1629.507 1609.03 1595.828 1576.745 1549.198 1522.031 1501.998 1488.062 1479.85 1476.173 1475.126 1474.479 1471.888 1468.765 1465.702 1462.885 1460.368 1458.138 1456.113 1454.143 1452.118 1450.161 1449.724 1447.219 1445.012 1441.949 1439.001 1436.003 1432.624 1429.54 1427.145 1425.007 1422.745 1420.429 1418.228 1416.111 1414.251 1413.093 1412.359 1411.68 1410.804 1409.56 1407.839 1405.872 1404.968 1404.557 1404.456 1404.919 1404.88 1404.196 1403.078 1402.393 1401.552 1400.086 1399.944 1398.43 1396.81 1395.343 1394.016 1392.742 1391.469 1390.173 1388.792 1387.237 1385.415 1383.288 1380.858 1378.162 1375.196 1372.381 1367.548 1361.687 1355.658 1349.917 1343.992 1338.887 1337.257 1342.228 1349.635 1355.006 1359.782 1364.026 1367.589 1370.514 1372.959 1375.013 1376.641 1377.426 1378.645 1379.927 1381.029 1381.966 1382.66 1383.048 1383.103 1382.825 1382.242 1381.388 1380.411 1379.37 1378.356 1377.488 1376.594 1376.019 1375.001 1374.019 1373.428 1372.424 1371.315 1370.268 1369.203 1368.093 1366.97 1365.864 1364.8 1363.763 1362.724 1361.707 1360.663 1359.625 1358.709 1357.843 1356.985 1356.18 1355.441 1354.76 1354.12 1353.526 1352.998 
1776.161 1752.885 1720.411 1682.958 1648.773 1624.379 1605.789 1582.896 1554.432 1525.822 1502.736 1487.953 1480.318 1478.304 1479.595 1481.031 1478.643 1474.736 1470.619 1466.836 1463.577 1460.88 1458.665 1456.75 1454.989 1453.415 1452.302 1450.28 1449.568 1446.764 1444.776 1442.682 1439.318 1436.385 1434.718 1433.12 1430.944 1428.62 1426.344 1424.129 1422.24 1420.871 1419.814 1418.77 1417.545 1416.039 1414.27 1412.51 1411.293 1410.484 1409.962 1409.677 1409.154 1408.225 1407.003 1405.802 1404.453 1402.91 1401.788 1400.014 1398.243 1396.677 1395.332 1394.093 1392.853 1391.559 1390.152 1388.557 1386.703 1384.567 1382.186 1379.668 1377.161 1374.692 1369.63 1363.672 1357.305 1350.802 1345.654 1340.078 1337.792 1342.402 1349.695 1355.994 1361.519 1366.151 1369.788 1372.641 1375.014 1377.081 1378.719 1379.877 1381.046 1382.193 1383.21 1384.051 1384.661 1384.992 1385.016 1384.73 1384.152 1383.345 1382.359 1381.337 1380.255 1379.221 1378.223 1377.26 1376.094 1375.021 1374.981 1373.943 1372.847 1371.951 1370.989 1369.97 1368.947 1367.93 1366.938 1365.962 1364.974 1363.989 1362.956 1361.897 1360.958 1360.069 1359.169 1358.341 1357.605 1356.875 1356.139 1355.418 1354.776 
1781.856 1758.062 1727.913 1697.246 1667.044 1645.195 1622.165 1596.22 1566.585 1536.751 1511.149 1494.321 1485.601 1483.583 1485.802 1488.351 1485.324 1480.346 1475.229 1470.674 1466.908 1463.984 1461.803 1460.127 1458.699 1457.378 1456.085 1454.425 1452.957 1450.525 1449.976 1449.073 1445.376 1442.704 1442.223 1441.303 1438.969 1436.679 1434.501 1432.17 1430.212 1428.765 1427.546 1426.228 1424.768 1423.141 1421.379 1419.681 1418.28 1417.152 1416.223 1415.396 1414.434 1413.199 1411.711 1410.078 1408.279 1406.344 1404.425 1402.217 1400.015 1398.193 1396.743 1395.51 1394.285 1392.985 1391.543 1389.89 1387.974 1385.771 1383.322 1380.719 1378.024 1375.012 1370.659 1365.384 1359.625 1353.884 1348.772 1341.557 1338.287 1342.793 1349.843 1357.023 1363.421 1368.557 1372.251 1375.03 1377.428 1379.454 1381.093 1382.381 1383.524 1384.562 1385.459 1386.181 1386.687 1386.941 1386.921 1386.621 1386.061 1385.28 1384.35 1383.298 1382.234 1381.102 1379.965 1378.833 1377.636 1376.579 1375.98 1375.001 1374.042 1373.507 1372.625 1371.657 1370.74 1369.832 1368.934 1368.039 1367.124 1366.2 1365.214 1364.175 1363.243 1362.35 1361.407 1360.573 1359.841 1359.116 1358.327 1357.486 1356.715 
1782.001 1758.293 1730.117 1705.704 1695.57 1675.347 1648.993 1618.562 1586.654 1555.468 1528.201 1507.987 1496.522 1492.62 1493.981 1496.531 1491.972 1485.783 1479.85 1474.769 1470.713 1467.758 1465.797 1464.51 1463.492 1462.443 1461.198 1459.671 1458.042 1456.18 1455.049 1453.485 1450.612 1449.745 1449.713 1449 1445.936 1443.948 1442.211 1439.656 1437.687 1436.377 1435.187 1433.625 1432.001 1430.349 1428.593 1426.91 1425.413 1424.064 1422.831 1421.645 1420.349 1418.816 1417.014 1414.977 1412.723 1410.287 1407.724 1405.003 1402.333 1400.015 1398.313 1397.019 1395.752 1394.412 1392.925 1391.202 1389.186 1386.855 1384.219 1381.349 1378.298 1375.011 1371.274 1366.691 1361.372 1355.616 1349.488 1341.73 1338.745 1344.311 1350.971 1358.858 1365.919 1371.453 1375.03 1377.771 1380.065 1382.001 1383.598 1384.897 1385.99 1386.923 1387.697 1388.294 1388.689 1388.858 1388.782 1388.461 1387.909 1387.162 1386.262 1385.263 1384.163 1383.044 1381.829 1380.593 1379.352 1378.185 1377.161 1376.032 1375.016 1374.984 1374.047 1373.096 1372.34 1371.558 1370.774 1369.967 1369.133 1368.283 1367.368 1366.384 1365.485 1364.611 1363.655 1362.791 1362.097 1361.403 1360.561 1359.671 1358.77 
